# .PCD v0.7 - Point Cloud Data file format
VERSION 0.7
FIELDS x y z
SIZE 4 4 4
TYPE F F F
COUNT 1 1 1
WIDTH 1136
HEIGHT 1
VIEWPOINT 0 0 0 1 0 0 0
POINTS 1136
DATA ascii
0.012388621 -0.0083841654 0.0011100918
0.011932919 -0.010124447 -0.0024113096
0.010290897 -0.013165854 -0.0042645093
0.0085935835 -0.014705472 0.0060651042
-0.0071693417 -0.01485497 0.0066347644
-0.011122758 -0.010696023 0.0022263862
-0.0087576071 -0.014716666 0.00426073
-0.011159959 -0.010780524 -0.001328811
-0.010240503 -0.012292137 -0.0032640938
-0.010174382 -0.013417162 0.0021074675
-0.008782059 -0.014293054 -0.0042658169
-0.0068316618 -0.017056871 0.0035897046
-0.0087026227 -0.015644649 0.002187524
-0.0060549919 -0.015431752 -0.0066271145
-0.0047500655 -0.015879266 0.0078063272
-0.0045732586 -0.018864185 0.0019758828
-0.005716797 -0.018383596 -0.00020400062
-0.0023037866 -0.016413223 0.008487422
-0.0021029599 -0.019801179 -0.00028479099
-0.007790044 -0.016825398 -0.00012064353
-0.0035466729 -0.016235221 -0.007571999
-0.00084205717 -0.019624632 -0.0027447548
-0.0045858854 -0.018645426 -0.0024272893
-0.0068129469 -0.017367018 -0.0020542536
0.00026987307 -0.016557701 0.0087852255
0.0017298963 -0.019223558 -0.0039744321
-0.00089387968 -0.018745065 -0.0050582886
-0.003426359 -0.018274289 -0.0047449339
0.00032296777 -0.017437557 -0.0072261151
0.0028505716 -0.016305935 0.0086858049
0.0041986946 -0.017591028 -0.0059815124
0.0053638965 -0.016451396 0.0073287301
0.0041093696 -0.016077401 -0.0078640655
0.0065574199 -0.016643338 -0.0054603703
-0.0046075815 -0.018285897 0.0041152909
-0.0021109637 -0.019668549 0.0021287948
0.0017750617 -0.019992005 -0.00030539185
0.0042629559 -0.018680859 -0.0038248468
0.007717263 -0.014617821 -0.0066261701
0.006616341 -0.01764264 -0.0034828521
0.0042993426 -0.019299258 -0.0014883317
0.010258717 -0.012632606 0.0054393709
-0.0046673883 -0.017276216 0.0060875006
-0.0021483963 -0.019037876 0.0044620149
0.00046969578 -0.019931216 0.0021957345
0.0086572394 -0.015771054 -0.0038400162
0.011365278 -0.011194161 0.0040615462
-0.0022136206 -0.017936729 0.0066128932
0.0043062661 -0.019419201 0.00092592463
0.0066497065 -0.018209673 -0.0013404191
0.00040055253 -0.018765386 0.005758103
0.003009716 -0.018993989 0.0045631528
0.0066560544 -0.018319653 0.00087329373
0.010337919 -0.013970603 0.0036047436
0.0066146404 -0.017622672 0.0041160621
0.0096033048 -0.015795182 0.0007443428
0.010371175 -0.014527328 -0.0015702881
-0.011582518 -0.0074931234 0.00028588623
-0.012817929 0.013089161 0.020795248
-0.011064468 -0.0024074076 0.00027263537
-0.0091887182 0.0026591297 0.00025973842
-0.011387518 0.016856974 0.017099056
-0.0077658445 0.01985462 0.014305867
-0.0069313794 0.0057512326 0.0002521202
-0.0032838993 0.0082504218 0.00024636835
-0.00012118928 0.0088720433 0.00024544075
-0.00087530538 0.021617429 0.012945969
0.0027439874 0.021338556 0.013440732
0.0056813862 0.0068401117 0.00025207922
0.0074495822 0.019516675 0.015548449
0.0086973533 0.0037161855 0.00026096776
0.011539191 -0.0022971921 0.00027740374
0.01043456 0.016372291 0.018881176
0.012106316 -0.0047979057 0.00028410554
0.011143295 0.013856295 0.021448139
0.0092491638 0.0088670049 0.026342589
-0.0035291724 0.0048145615 0.02965061
-0.0069286618 0.0056724101 0.028587881
-0.009760255 0.0072270688 0.0268596
-0.011760024 0.0093336329 0.024626855
0.016134588 0.014151277 0.021448482
0.017265087 -0.0055450471 0.00028721988
0.014197281 0.0052153198 0.00025825575
0.015047422 0.017871477 0.017650593
0.010779668 0.010357119 0.00024398044
0.011628265 0.021670181 0.013635453
0.012423053 0.0082373647 0.00024991855
0.007512264 0.013319936 0.0002354607
0.0022516865 0.025039691 0.009697292
0.0033530835 0.015385572 0.00022910163
-0.00099792145 0.015916085 0.00022673234
-0.002085859 0.025078289 0.0094010085
-0.0052561518 0.014876772 0.00022851303
-0.0091430731 0.012335615 0.00023431703
-0.0072626909 0.013785741 0.00023093075
-0.010237277 0.022862982 0.011140134
-0.013517966 0.020753976 0.013061795
-0.012404444 0.0084588323 0.00024377927
-0.014826935 0.0035000069 0.00025626644
-0.01373188 0.0060958322 0.00024969131
-0.015969109 0.018147487 0.01553195
-0.015841965 -6.9441739e-06 0.0002652593
-0.016558791 -0.0052433275 0.00027885661
-0.016252091 -0.0022165061 0.00027097389
0.017204693 -0.0093861474 0.0025938749
0.015492665 0.010328891 0.025246255
0.016556954 -0.011349942 0.004526142
0.014565038 -0.01430695 0.007375326
0.013772292 0.0074597951 0.028023336
0.012658689 -0.016041085 0.0090023912
0.011096405 0.004962787 0.030370276
0.010358997 -0.017519452 0.01034943
0.005688196 0.0022628994 0.032758582
0.0069379024 -0.018958323 0.011590254
0.00058229081 -0.020071927 0.012330417
-0.0049870592 0.0013894027 0.0330013
-0.0055997111 -0.019482903 0.011372242
-0.0077647483 -0.01882742 0.010585893
-0.010864312 0.0031658632 0.030869599
-0.012750977 -0.016041629 0.0074941926
-0.014013547 0.0051862355 0.028655097
-0.01521959 -0.013227916 0.0045239665
-0.017071972 0.0091423988 0.024503361
-0.016586691 -0.0083167851 0.00028692558
0.0063872784 0.024223275 0.010762148
-0.017757213 0.0136841 0.01990493
0.010735495 0.011274314 0.024015028
-0.006341638 0.024336547 0.009892676
-0.0044909157 0.021106925 0.013243597
0.00012136064 0.0047334805 0.02994873
-0.00067360513 0.0011540947 0.03349356
0.006822845 0.0068587475 0.02821387
0.0036826786 0.0054367241 0.029454466
-0.016400011 -0.010462867 -0.00035140291
0.017255729 -0.0094231414 -0.0016537532
0.016019104 -0.012400214 -0.0049106963
0.015408905 -0.014339431 0.0053111129
0.014602805 -0.014930298 -0.0061116908
0.016648768 -0.012900305 0.0018524416
0.011952361 -0.016586969 -0.0088298097
0.014702966 -0.016636565 0.0037333928
0.0154949 -0.015790476 0.0018278435
0.010412615 -0.018404514 -0.008800257
0.010453206 -0.019111326 0.0084591359
0.012828298 -0.018905785 0.0045239329
0.0077989437 -0.0196697 -0.0097258501
0.0049481206 -0.0205625 -0.010329524
0.0034573451 -0.020802878 0.011152759
0.0022166334 -0.020017974 -0.011666153
-0.0021226974 -0.020073755 -0.011467181
-0.0040906845 -0.020784587 -0.01007011
-0.0062945941 -0.019347336 -0.010501292
-0.010028369 -0.017886017 -0.0088313166
-0.01185238 -0.017410992 -0.0068776887
-0.014560485 -0.014207449 -0.0049127899
-0.0095198136 -0.019557334 0.007941559
-0.006899761 -0.020777693 0.0089083798
-0.0040444303 -0.021590047 0.0095982105
-0.012799484 -0.017520379 0.005308155
-0.0009987317 -0.02275981 0.008751478
0.0035572518 -0.022490557 0.008751791
-0.015696997 -0.013137102 0.0022111461
-0.0081712408 -0.021456372 0.0063193627
-0.0054150065 -0.022603063 0.0069333501
-0.013665058 -0.017115876 0.0032928884
-0.00092492066 -0.024005648 0.0060934052
0.0036310609 -0.023736391 0.0060937181
0.0079245679 -0.021814702 0.0069342665
-0.010607662 -0.020616436 0.0035008453
0.0079801232 -0.02275175 0.0043762289
0.010577057 -0.021201817 0.0039989389
-0.0081208181 -0.02230685 0.0039976574
-0.0053417422 -0.023838256 0.0030447096
0.00064510852 -0.024816521 0.0032832026
-0.012721824 -0.018829647 0.001186315
-0.0023820838 -0.024784859 0.0017778873
0.0036765337 -0.024502536 0.0032593124
0.0080086384 -0.023231141 0.0016940497
0.010602938 -0.021636914 0.001564566
0.01286996 -0.019607075 0.0013941266
-0.014434198 -0.016350359 0.00030852109
-0.0080949375 -0.022741947 0.0015632845
0.0021837391 -0.024991833 0.00033495203
-0.005330327 -0.02402666 -0.0010316856
-0.0023814365 -0.024792451 -0.0011111014
0.0066151116 -0.023855694 -0.0010761805
0.014737235 -0.017211434 -0.00055357814
-0.015672497 -0.013548978 -9.328872e-05
-0.011709198 -0.01983979 -0.0016239509
-0.0081036408 -0.022590399 -0.0021373462
0.010594234 -0.021485366 -0.0021360647
-0.0053576417 -0.023561377 -0.0037163608
0.00062783435 -0.024515713 -0.0040621571
0.0036593992 -0.02420415 -0.0040269066
0.012848968 -0.019246968 -0.0028580092
-0.010625027 -0.02031406 -0.0038827993
-0.0024357382 -0.023868734 -0.0053376202
0.0079580322 -0.022367073 -0.0050171204
0.010557009 -0.020852679 -0.004526563
0.016119713 -0.014105701 -0.0022132955
-0.0081685567 -0.021487886 -0.0056725945
0.003600765 -0.023208817 -0.0067889299
0.013799459 -0.01746005 -0.0044092275
-0.014474271 -0.015668683 -0.0028105285
-0.012797248 -0.017546639 -0.0046841614
-0.005448929 -0.02201237 -0.0074905977
-0.0025071828 -0.0226568 -0.0079591516
0.00052865967 -0.022832841 -0.0081625637
0.011681866 -0.018966103 -0.0063243471
0.0078906473 -0.021224009 -0.0074896831
0.0078436639 -0.020448461 0.0092904419
0.010526637 -0.020351339 0.0063206442
-0.015749004 -0.01225119 -0.0029005371
-0.0087709446 0.0064266985 -0.027077194
-0.0094876373 0.0024063098 -0.031027477
-0.0039615696 0.0047262609 -0.029047664
-0.016506629 0.0079403827 -0.025120638
-0.01111004 0.0083577298 -0.025022544
-0.014337678 0.005330882 -0.027839044
-0.0022443216 0.021450505 -0.012540951
-0.001538178 0.025068272 -0.0089898594
-0.0058195144 0.024420382 -0.0093822572
-0.0033716001 0.0010355656 -0.032747153
0.00097139739 0.0010943949 -0.032943312
0.0064764991 0.0064976569 -0.027900504
0.0090282448 0.0035005871 -0.031026209
-0.011546981 0.022079123 -0.011371423
-0.015707443 0.018416191 -0.014764884
-0.011962837 0.015864959 -0.017517788
0.010468327 0.02237734 -0.012365781
0.0064076334 0.020039359 -0.014449395
0.0068810955 0.024012214 -0.010532059
0.001413893 0.021467529 -0.012738483
0.015812939 0.015947143 -0.019064333
0.0098991096 0.017156987 -0.017516289
0.014403479 0.018824067 -0.016124895
0.012215093 0.0056905597 -0.029038345
0.011029346 0.012114904 -0.022589389
-0.017649924 0.010883246 -0.022131324
-0.017297823 0.015498633 -0.017568829
0.0027897209 0.024929183 -0.0093816668
0.016079349 0.00043075043 0.00027125329
0.016946932 -0.0032631608 0.00028115511
0.0051968098 0.0019343847 -0.032356877
0.0145489 0.0083610546 -0.026523314
0.015877007 0.011337394 -0.023645625
0.011016127 0.014714111 -0.020007571
0.010711445 6.7889458e-05 0.00027100369
-0.0073797824 0.019975193 -0.013704924
-0.010103669 0.018158777 -0.01534898
-0.01017862 0.00053072511 0.00026511028
-0.012777369 0.012004112 -0.021303909
0.0014989041 0.0047516739 -0.02934251
0.0090052132 0.0084513444 -0.026108697
-0.0020492608 0.012959144 0.0044955872
-0.012380675 0.0057972632 0.014392961
-0.01196135 0.0004440879 0.0071195178
-0.011302815 0.010823922 0.011877295
-0.011147007 0.0046050642 0.0062679611
-0.0092899874 0.013684763 0.010461777
-0.0092935227 0.0082430253 0.0055165589
-0.006450139 0.015835945 0.0094128586
-0.0065736575 0.011018887 0.0049353577
-0.0030479627 0.017076967 0.0088283047
0.0016162209 0.012944028 0.0045295246
0.0019581262 0.017162792 0.0089276507
0.0051312167 0.011628644 0.0048256516
0.0053865816 0.016014926 0.0096358359
0.0081681032 0.0091355965 0.0053563677
0.0082740914 0.013940217 0.010787603
0.010443823 0.0056972448 0.006072212
0.010351527 0.011132045 0.012275603
0.011746259 0.0016340816 0.0069064535
0.011425253 0.0078521464 0.013961133
0.011975355 -0.00060417713 0.0076499544
0.01164807 -0.0026300943 0.009663593
0.010929313 0.0037327555 0.017415162
0.0099999476 -0.0053750128 0.012320343
0.0078398958 0.00019826903 0.020778693
0.0046445932 -0.0086727664 0.015311766
0.005159935 -0.0012381955 0.022061106
-0.00044098869 -0.002383169 0.022877559
0.00058948994 -0.0094388258 0.015839756
-0.0042831982 -0.0090383682 0.015148558
-0.0037046559 -0.002149638 0.022449419
-0.0090221735 -0.0068431385 0.012664188
-0.0087090451 -0.00026999624 0.020265993
-0.010959985 0.0017609519 0.018094219
-0.011560105 -0.0035843572 0.0092432015
-0.011931647 -0.0017107057 0.007774543
0.016484713 0.0078407526 0.014137328
0.016974362 -0.00051604793 0.0078583397
0.015604453 0.011574281 0.012355458
0.01601726 0.0055192802 0.0065629967
0.016602708 0.0030471568 0.00707886
0.01367276 0.015204133 0.010449592
0.014071364 0.010103242 0.0055779256
0.014763234 0.013449788 0.011377756
0.015168829 0.00788425 0.0060599297
0.010819444 0.018236581 0.0088017844
0.011205167 0.013960531 0.0047082789
0.012350928 0.01680851 0.0095862076
0.012742871 0.012139814 0.005124893
0.0072311517 0.020473283 0.0075198337
0.0076061431 0.016838834 0.0040109344
0.0091034602 0.019464895 0.0081092007
0.0094835032 0.015535489 0.0043349117
0.0031425841 0.021767925 0.0066875815
0.0035097171 0.018549884 0.0035315156
0.0056039244 0.017849162 0.0037416629
-0.00099775195 0.022050656 0.0063594654
-8.9740381e-05 0.018991722 0.0033015124
-0.0052798335 0.021338807 0.0065567829
-0.0043953592 0.018376084 0.0033350103
-0.0064573903 0.017587014 0.0034508742
-0.0092438376 0.019628296 0.0072667934
-0.0084133651 0.016492646 0.0036306418
-0.011024243 0.01843112 0.0078007877
-0.010231162 0.015110943 0.0038713589
-0.012630479 0.017030995 0.0084430575
-0.011880938 0.013464597 0.004169073
-0.014036171 0.015450903 0.0091830529
-0.013335602 0.011580639 0.0045188926
-0.015218237 0.013716798 0.010008629
-0.014571266 0.009490001 0.0049150772
-0.016157269 0.011857152 0.010906238
-0.015567644 0.0072270175 0.005351115
-0.016837846 0.009902494 0.011861119
-0.016308375 0.0048288442 0.0058198608
-0.017248794 0.0078849234 0.012857608
-0.016781293 0.002334859 0.0063136034
-0.017383367 0.0058375727 0.01387934
-0.016978635 -0.00021399208 0.0068242438
0.016448645 0.0053311922 0.016138799
0.016801881 -0.0022583271 0.0095965303
0.01560338 0.0026126949 0.01881671
0.015778081 -0.0049545355 0.012241472
0.014627939 0.0009859351 0.020391297
0.013634305 -0.0077426191 0.01491211
0.012099765 -0.0016414768 0.022877876
0.010568867 -0.010075882 0.017071601
0.008725673 -0.0037467314 0.024790224
0.0085388832 -0.011123979 0.018002871
0.005217975 -0.0050633047 0.025903169
0.0049504042 -0.012327133 0.0189972
0.0028415807 -0.0055912863 0.026291914
0.00059876218 -0.012970874 0.019384827
-0.0015592985 -0.005916873 0.026357342
-0.0037939241 -0.012806119 0.018958669
-0.0058819596 -0.0054316837 0.025613777
-0.006152791 -0.012370801 0.018381748
-0.009410724 -0.0043549184 0.02432368
-0.0096037537 -0.011174897 0.016976718
-0.011398602 -0.0033865424 0.02323385
-0.012886392 -0.009189548 0.014789443
-0.014358232 -0.0011651332 0.020828862
-0.01529854 -0.0066508427 0.012098543
-0.016374409 0.001545144 0.017989296
-0.016210018 -0.0050599054 0.010447867
-0.016924817 -0.0023654813 0.0077014863
0.010451658 0.018879062 0.016366567
-0.014058893 0.015082575 0.018721107
-0.011030305 0.019238517 0.014730316
-0.0074953614 0.0044003818 -0.029164122
-0.013877964 0.0098688519 -0.023359733
-0.0052116495 0.022071516 -0.01175034
0.0044677667 0.0042759692 -0.02998892
0.0049766712 0.021963175 -0.012455145
0.011701329 0.0095983716 -0.025127728
-0.017354123 0.0070478972 -0.013127867
-0.016884813 -0.0025315082 -0.0075433739
-0.017349137 0.0049955016 -0.014146743
-0.01653395 0.011067491 -0.01114415
-0.016270472 0.005401887 -0.0056800582
-0.017080897 0.0090830326 -0.012121495
-0.016766526 0.0029281236 -0.0061742458
-0.014659153 0.014755404 -0.0093399901
-0.014489174 0.0099930409 -0.0047546364
-0.01572226 0.012968687 -0.010211881
-0.015507177 0.0077698212 -0.0052042492
-0.011852364 0.017870406 -0.0078333989
-0.011759818 0.013862293 -0.0039629787
-0.013362089 0.016398301 -0.0085428003
-0.01323318 0.01203504 -0.0043386035
-0.0082971705 0.020208748 -0.0067229196
-0.0082609318 0.016756557 -0.003356861
-0.01009328 0.015444795 -0.0036339313
-0.0042261258 0.021617472 -0.0060811974
-0.0042213779 0.018486518 -0.0029759314
-8.7404624e-05 0.022022501 -0.005950287
-0.00063264184 0.018961951 -0.0028453283
0.0042074416 0.02142675 -0.0063387547
0.0036977138 0.018366827 -0.0029738434
0.005789604 0.017587412 -0.0031331182
0.0082002133 0.019821716 -0.007221099
0.0077865142 0.016502073 -0.0033526011
0.010000451 0.018671108 -0.0078306105
0.0096556451 0.01512864 -0.0036286786
0.011629736 0.017312385 -0.0085396077
0.011366317 0.013489664 -0.0039568227
0.013061319 0.015767857 -0.0093364455
0.012890428 0.011612052 -0.0043316446
0.014271697 0.014062889 -0.010208042
0.014202962 0.0095266392 -0.0047469921
0.015240977 0.012225472 -0.01114008
0.015282361 0.0072676651 -0.0051960386
0.015953271 0.010285783 -0.012117263
0.016110903 0.0048722234 -0.0056714192
0.01639686 0.0082756625 -0.013123542
0.016674982 0.0023796444 -0.0061653182
0.016544299 0.0063805245 -0.014501974
0.016942279 -1.7043436e-05 -0.0070292205
-0.017004285 0.0030154476 -0.01587699
-0.016437497 -0.0045239488 -0.0092919301
-0.015768411 0.00044807303 -0.018498868
-0.015107052 -0.0069583086 -0.011787266
-0.013733975 -0.0085230274 -0.013421537
-0.014554435 -0.0010673164 -0.020074829
-0.013046438 -0.0024060949 -0.021492647
-0.010701979 -0.010711174 -0.015772123
-0.009702323 -0.0043484913 -0.023617495
-0.0086869178 -0.01166071 -0.016833141
-0.0062136957 -0.0054923138 -0.024957821
-0.0051143412 -0.012684567 -0.018059261
-0.00077040307 -0.013107084 -0.018733457
-0.0019089729 -0.0060464377 -0.025760407
0.00055372342 -0.0059992112 -0.025857868
0.0036267024 -0.01271438 -0.018601246
0.0048849657 -0.0052876137 -0.025405131
0.0059934016 -0.012154994 -0.018184502
0.0084318426 -0.0040234998 -0.02435776
0.0094632637 -0.010773262 -0.01701582
0.012776954 -0.0086069722 -0.01505891
0.011864701 -0.001956831 -0.022506762
0.013427636 -0.00055916072 -0.021210475
0.014268098 -0.0071695009 -0.01371889
0.015974557 -0.0046498403 -0.011316866
0.015304575 0.0019278924 -0.018850822
0.016063796 0.0036142122 -0.017220791
0.016650865 -0.0029205095 -0.0096392632
0.01110453 0.0092573781 -0.012821384
0.011922821 0.00020196545 -0.0069085062
0.0095951892 0.012374552 -0.0112093
0.010180537 0.0063146902 -0.0056595989
0.0071532242 0.014897264 -0.0098470077
0.0078031402 0.00960878 -0.0049439818
0.0040062498 0.016590379 -0.0088614803
0.0046988819 0.011910009 -0.004401315
0.000447575 0.017296087 -0.0083445795
0.0011571106 0.013003877 -0.0040821843
-0.0027457811 0.017086601 -0.0083447434
-0.001895695 0.012956116 -0.0040166415
-0.0061811935 0.015903315 -0.0088619571
-0.0053833202 0.01169976 -0.0042108782
-0.009078756 0.013796659 -0.0098477509
-0.0083687278 0.0092556458 -0.0046463981
-0.011168396 0.010962992 -0.011210239
-0.010573657 0.0058515798 -0.0052826051
-0.012255343 0.0076664295 -0.012822432
-0.011792593 0.0018048508 -0.0060602054
-0.011950215 -0.0019674005 -0.0070162825
0.00091527589 -0.0024099441 -0.022314876
0.0039615892 -0.0089602526 -0.014892984
0.004509218 -0.0016058718 -0.021727093
0.0076258276 -6.3980231e-05 -0.020378664
0.007584095 -0.0074060997 -0.013562035
0.010683477 -0.0045892997 -0.010946598
0.0097345877 0.0017977923 -0.018653512
0.011525415 0.0057452926 -0.014838573
0.011892218 -0.0017293107 -0.0081774481
-0.012234032 0.0043411246 -0.014840201
-0.011093669 0.0018551506 -0.017375648
-0.010948364 -0.0048031742 -0.0098909661
-0.0098356176 -0.006165918 -0.011309413
-0.0080715353 -0.007565177 -0.012802299
-0.0076765753 -0.00096834241 -0.020379713
-0.0029907255 -0.0093711298 -0.014893459
-0.004399864 -0.0021323927 -0.021727702
-0.0023264857 0.015061985 0.0066206567
-0.012200221 0.0027980206 0.010540567
-0.010887789 0.008410994 0.008682806
-0.0087375594 0.01153852 0.0076757744
-0.0057922862 0.013826603 0.0069663487
0.0015651956 0.015074904 0.0066711046
0.0050650612 0.013874239 0.0071128719
0.0080734659 0.011616431 0.0079047084
0.010194806 0.0087996479 0.0089720264
0.011516547 0.0051698517 0.010216776
0.01169868 0.0019429044 0.012167234
0.0098705608 -0.001746217 0.015760843
0.0083484221 -0.0031319729 0.017061111
0.00450016 -0.0051164869 0.018824141
0.00084415264 -0.0058737788 0.019367028
-0.0013698172 -0.0059301443 0.019292127
-0.0044156071 -0.0055220183 0.018701714
-0.0091261407 -0.0033848046 0.016277257
-0.010559963 -0.0020253921 0.014827907
-0.011754463 -8.0982456e-05 0.012805704
0.016659772 0.0046854913 0.010481749
0.015563386 0.0091511151 0.008960925
0.013435408 0.013183804 0.0075648837
0.010415038 0.016519785 0.0063849576
0.0066998284 0.018940842 0.005498305
0.0025327969 0.020288613 0.004962936
-0.00045369938 0.020536836 0.0048386939
-0.0068021631 0.019061144 0.0050618015
-0.0087471157 0.018010948 0.0053301193
-0.010551851 0.016706595 0.0056893788
-0.012186735 0.015169501 0.0061336868
-0.013624922 0.013424904 0.0066557415
-0.014842801 0.011501456 0.0072469749
-0.015820369 0.0094307307 0.0078976713
-0.016541578 0.0072467364 0.0085971616
-0.016994584 0.0049853362 0.0093339458
-0.017171953 0.0026836579 0.010095932
0.016600477 0.0013055892 0.013097856
0.015658742 -0.0012454039 0.015601944
0.014561651 -0.002950663 0.017248083
0.01187755 -0.0055391453 0.019686338
0.0083621684 -0.0075731575 0.0215188
0.0049828645 -0.0087263975 0.022475462
0.0024477523 -0.0092385914 0.022838939
-0.0020021489 -0.009452356 0.022789236
-0.0063294116 -0.0088422243 0.021920014
-0.0096015958 -0.0077293105 0.020608876
-0.011665748 -0.006662745 0.019415982
-0.014530575 -0.0043408144 0.016915746
-0.016411204 -0.0015459883 0.01399938
-0.017125787 0.0043618241 -0.0093938857
-0.017118307 0.0012832282 -0.010922201
-0.016152013 0.0088519221 -0.0079318099
-0.01413501 0.01292501 -0.0066275429
-0.011206701 0.016314663 -0.0055663977
-0.0075586364 0.018799175 -0.004817782
-0.0034294315 0.020216018 -0.0044306666
0.0017258488 0.020317642 -0.0044297781
0.0059473254 0.019111875 -0.0048155822
0.0079236384 0.018093145 -0.0051466301
0.0097665135 0.016817991 -0.0055630263
0.011445688 0.015307352 -0.006057933
0.012933595 0.013586033 -0.0066232234
0.014205797 0.011682301 -0.0072496142
0.015241409 0.0096274083 -0.0079268217
0.016023429 0.0074551031 -0.0086437259
0.016539013 0.0052010473 -0.0093885567
0.01674944 0.0031308576 -0.010688461
-0.016681464 -0.00091845007 -0.012749823
-0.015399301 -0.0032980808 -0.015187982
-0.014060166 -0.0048922952 -0.016849553
-0.012400816 -0.0062745828 -0.01831945
-0.0089110127 -0.0081354519 -0.02037188
-0.0055464869 -0.009119343 -0.021546118
-0.0011776574 -0.0095874397 -0.022267034
0.0014321841 -0.0094817551 -0.02231507
0.0057692081 -0.0086409235 -0.021734342
0.009058645 -0.0073512811 -0.020646531
0.012438836 -0.0051980941 -0.018706532
0.014033908 -0.0036840208 -0.017296538
0.015682412 -0.0012886876 -0.015014576
0.016422836 0.00050989981 -0.013271958
0.01114873 0.006529009 -0.009228291
0.011684466 0.0039907657 -0.01050823
0.0094432272 0.0099833347 -0.0080558062
0.0068386365 0.01273798 -0.0070966352
0.0035777185 0.014536193 -0.0064401813
-3.558211e-05 0.015210368 -0.0061476268
-0.0038821371 0.014604544 -0.0062460508
-0.0071555814 0.012863214 -0.0067264009
-0.0097809881 0.010153777 -0.0075439773
-0.01151365 0.0067287758 -0.0086225756
-0.012168014 0.0016062816 -0.010507304
0.0036882386 -0.0054619657 -0.018455617
0.0070176814 -0.0041090054 -0.017307278
0.0086526144 -0.0030007756 -0.016302627
0.010440707 -0.0011269117 -0.014546674
0.011706496 0.0019084446 -0.011606725
-0.011350803 -0.00098319189 -0.013126586
-0.010347457 -0.0023554799 -0.014548097
-0.0089896685 -0.0035563807 -0.015820198
-0.0066810464 -0.0048743486 -0.01726428
-0.0033360263 -0.0058285967 -0.018407939
0.00029919483 -0.0060099168 -0.01880108
0.0064403396 -0.0043070149 0.018127009
0.016246671 0.0069546085 0.0097118355
0.01462114 0.011238942 0.0082413331
0.01202566 0.014953773 0.0069426857
0.0086299907 0.017856119 0.0059008412
0.0046562459 0.019756133 0.0051839463
-0.016774956 0.0066410638 -0.0086489283
-0.015267189 0.010958099 -0.0072543081
-0.012774064 0.014720358 -0.006061811
-0.0094586583 0.017681753 -0.0051494408
-0.012290449 0.004297642 0.012466762
-0.011891371 -0.0023475515 0.0054132231
-0.012481367 0.0085886549 0.01566622
-0.012559471 0.010304622 0.017161358
-0.011182377 0.00085538044 0.0032709204
-0.011887935 0.0075985249 0.011286322
-0.0095020672 0.0049995044 0.0028892793
-0.010900537 0.014592322 0.01411517
-0.010467369 0.0030160544 0.0030713677
-0.0069164243 0.0082540158 0.0025940426
-0.0085682767 0.016923863 0.012489919
-0.0037694387 0.019091947 0.011035949
-0.0036664465 0.010315571 0.0024127364
-0.0007807631 0.010950202 0.0023704916
-0.0015120003 0.01942743 0.010849953
0.0023510586 0.019250674 0.011184189
0.0049121119 0.0095586609 0.0025379024
0.0057081003 0.018155608 0.0121588
0.0084327273 0.0064258901 0.0028086677
0.0084747169 0.016264003 0.0136705
0.01069284 0.0025948377 0.0031723864
0.010393042 0.013752168 0.015578385
0.011466311 0.00040458119 0.0033791363
0.011656243 0.0032420789 0.0085620433
0.01197597 -0.0019016883 0.0035961308
0.011284275 0.010854222 0.01770464
0.011869313 0.0010886898 0.0094897039
0.012179298 -0.0044486821 0.0044303648
0.012008505 -0.0033648408 0.006877441
0.011041282 0.0080745649 0.020154454
0.011503419 -0.00098554441 0.01154954
0.011815054 -0.0062932 0.0062597655
0.0099352542 -0.0035606141 0.014040593
0.0095598642 0.0035603938 0.021051716
0.010472313 -0.0086021256 0.0084971227
0.010317631 0.00072854361 0.016848773
0.008094158 -0.0014668519 0.018919904
0.0079905521 0.0039992332 0.024063036
0.008835895 -0.010155644 0.0099589638
0.0045723803 -0.0068946294 0.017067954
0.0040914211 0.00016011647 0.024139304
0.0055261962 -0.011962941 0.011576124
0.0055292454 -0.0029069262 0.020212766
0.0052424464 0.0024132614 0.025491435
0.0039999522 -0.010666639 0.013729513
0.0030247718 0.0016718486 0.026103791
0.0031315032 -0.012662901 0.012136366
0.0012055468 -0.011177417 0.01407617
-0.00012268871 -0.0041476395 0.021122266
0.00015848689 -0.00058931322 0.024657857
0.00070652179 -0.012981905 0.012312509
-0.0019019004 0.0011630689 0.02632184
-0.0043494012 -0.007280197 0.016925137
-0.0048483098 -0.00018613623 0.023955971
-0.0033193314 -0.012727967 0.011818632
-0.0033105677 -0.003974488 0.020759221
-0.0048828013 -0.010622013 0.013157297
-0.0058790427 0.0018626896 0.025383595
-0.0057245372 -0.012069482 0.011015009
-0.0073243063 -0.0096430145 0.012029875
-0.0090741562 -0.0051139705 0.014470723
-0.0094431974 0.0019211338 0.021568429
-0.0084706275 -0.010630507 0.0094078965
-0.0084462417 -0.0021442643 0.018617593
-0.010759974 -0.00013222196 0.016461063
-0.010918906 0.0049917903 0.021944191
-0.010088332 -0.0091635082 0.0078396648
-0.011657284 -0.001832668 0.011024449
-0.012070315 0.0052265394 0.018095355
-0.011187325 -0.0074726678 0.0060775988
-0.011672432 -0.0046420898 0.0067531094
-0.012375647 0.0076872893 0.019152675
-0.011676578 -0.0059406795 0.004511144
0.016572239 0.006263122 0.01230954
0.01696243 -0.00042977952 0.0053844862
0.016871134 0.001317417 0.0095571615
0.017182594 -0.0037983491 0.0040748119
0.016348297 0.010292262 0.018244032
0.016403014 0.001568049 0.0034209006
0.016118525 0.012262223 0.017021466
0.014562955 0.0067276377 0.002920635
0.014905324 0.015660632 0.014514174
0.015788173 0.0036904446 0.0031668544
0.011784134 0.01114989 0.0024789572
0.008248318 0.014545528 0.0021247528
0.0095769353 0.021073671 0.010317564
0.010097397 0.012991684 0.0022893213
0.004186783 0.016692463 0.0018812008
0.0058102664 0.022734229 0.0089027472
0.0062672701 0.015785914 0.0019879676
-0.00045361742 0.023604123 0.0079050623
0.0020410102 0.017250296 0.0018062107
-0.0023049405 0.017289048 0.0017559305
-0.0047607711 0.023070958 0.0080529712
-0.0064863283 0.015899636 0.0018404238
-0.0087974984 0.021657284 0.0088463575
-0.0084289154 0.014694236 0.0019318201
-0.010229632 0.013172935 0.002054166
-0.012299751 0.019455582 0.010233328
-0.011858917 0.011360706 0.0022054426
-0.01329001 0.0092873033 0.0023831688
-0.015038451 0.016609855 0.012123156
-0.014499417 0.0069867782 0.0025844239
-0.015467278 0.0044969022 0.0028059073
-0.016834456 0.01330624 0.014392231
-0.016177701 0.0018585583 0.0030439869
-0.017121689 0.0064351317 0.011095781
-0.017339587 0.011549463 0.01562332
-0.016619019 -0.00088492804 0.0032947436
-0.01727766 0.0042606127 0.011987638
-0.017570289 0.0097608343 0.016892131
-0.01678399 -0.0036885145 0.0035540648
0.016455198 0.0079974327 0.017008428
0.016524563 0.0033183896 0.014618326
0.016202668 0.0085880738 0.019945595
0.016691288 -0.00051446096 0.01138483
0.016897747 -0.0062287338 0.0064968653
0.015861301 0.0051714741 0.019809105
0.015631059 0.00068364083 0.017209325
0.015181946 0.0057359096 0.022747226
0.015583361 -0.0033556859 0.014170308
0.015529996 -0.009245947 0.0094435252
0.014594799 -0.00098236674 0.01881969
0.014166972 0.0022545659 0.022635709
0.014200116 0.0042228661 0.024207316
0.013594462 -0.0059095826 0.016615126
0.01405983 -0.0091917459 0.012846731
0.014099674 -0.011024786 0.011143718
0.012824444 0.00081473379 0.024000913
0.011988655 -0.003590314 0.021282103
0.011598084 0.0016606578 0.026624076
0.010536019 -0.0082652681 0.018797535
0.011028418 -0.011635039 0.015118659
0.011061264 -0.013445649 0.013392724
0.0096792597 -0.0014502781 0.026087176
0.0085439179 -0.005659949 0.023154516
0.0081828479 -0.00037276582 0.028461896
0.0084025301 -0.0093680974 0.019777585
0.0082034171 -0.014883203 0.014665663
0.0062011126 -0.0029764625 0.027412232
0.0051004197 -0.006894853 0.024189312
0.004423609 -0.0016799795 0.029550519
0.0046038833 -0.010619879 0.020808231
0.004056545 -0.016106728 0.015647285
0.0026446637 -0.0074149407 0.024565425
0.0019723605 -0.0039534494 0.028141577
0.0021692757 -0.0021297934 0.029868063
0.00060287863 -0.011195607 0.021148432
0.0012472924 -0.014707569 0.017621268
0.0012431759 -0.01648283 0.015857667
-0.00041399151 -0.0041556247 0.028202772
-0.0017807242 -0.0076846182 0.024573285
-0.0022030715 -0.0023717175 0.029851224
-0.0038104896 -0.011049446 0.020739693
-0.0032470524 -0.014633857 0.017280441
-0.0032304879 -0.016390529 0.015499406
-0.0047782408 -0.0039019475 0.027689062
-0.0061056856 -0.0071369521 0.023766894
-0.0064705368 -0.0018166157 0.02904078
-0.0062910616 -0.01059277 0.020134125
-0.0065093171 -0.015752751 0.014664695
-0.0085215243 -0.0029791093 0.026540704
-0.0095061585 -0.0060421154 0.022466276
-0.010137518 -0.0005945249 0.027596638
-0.0099199712 -0.0093124993 0.018633857
-0.01031263 -0.014261248 0.012942091
-0.011532174 -0.0050246473 0.021324918
-0.012100365 -0.0012804831 0.02462358
-0.011966791 0.00035761832 0.026532512
-0.012920246 -0.0074765272 0.016613256
-0.012424374 -0.011238381 0.013328049
-0.012390521 -0.0129514 0.011504237
-0.013733568 -9.2759961e-05 0.023334686
-0.014444403 -0.0027529749 0.018872302
-0.014816984 0.0026181487 0.024094764
-0.015365181 -0.0049385745 0.013921164
-0.014997319 -0.0087031722 0.010631118
-0.014930679 -0.010415437 0.0088084936
-0.016030513 0.0024885812 0.020607844
-0.016392807 -4.2491592e-07 0.015994336
-0.01672319 0.0053437725 0.021246333
-0.016324913 -0.0032662863 0.012185987
-0.016161464 -0.0081825834 0.0064946711
-0.017220164 0.0051655229 0.017850809
-0.017239954 0.0057048602 -0.011260878
-0.016842289 -0.00044075237 -0.0045575127
-0.017001562 -0.00062413909 -0.0092327856
-0.0168525 -0.0035167777 -0.0053176358
-0.016735751 -0.0054241484 -0.0036282223
-0.017539749 0.0083235726 -0.017755162
-0.016255494 0.0016566662 -0.0027047116
-0.01733261 0.0099211046 -0.014232229
-0.014640881 0.0068056574 -0.0022493359
-0.01617733 0.014979277 -0.013169453
-0.012054693 0.011210989 -0.0018597282
-0.0086660972 0.014584508 -0.0015613623
-0.010850873 0.020613333 -0.0092974268
-0.010447918 0.013042292 -0.0016977638
-0.004696737 0.016705543 -0.0013737641
-0.0070823319 0.022424597 -0.0081032887
-0.0067384858 0.015812311 -0.0014527664
-0.00081278943 0.023545388 -0.0074700713
0.0017720293 0.017259972 -0.0013246983
0.0034985784 0.023177966 -0.0078602117
0.006016437 0.015842926 -0.0014499947
0.0075406507 0.021916965 -0.0088765789
0.0080128685 0.014624539 -0.0015577339
0.0098812208 0.013091087 -0.0016933419
0.011049034 0.019844862 -0.010452695
0.01159081 0.011267747 -0.0018545855
0.013113577 0.0091844546 -0.0020388141
0.013794234 0.017097194 -0.012485467
0.014424508 0.0068754228 -0.0022430159
0.014822232 0.01552477 -0.013632489
0.015502075 0.0043785647 -0.0024638213
0.015988352 0.0088704433 -0.010380495
0.015596686 0.013853693 -0.014841929
0.016328597 0.0017348796 -0.0026976243
0.016467942 0.0067383563 -0.011256048
0.016104897 0.012111403 -0.016093938
0.01689049 -0.0010122296 -0.0029405653
0.016646868 0.0047556907 -0.012595218
0.016430994 0.0087778773 -0.015640983
0.016328426 0.010402709 -0.017547742
0.017149707 -0.0036275296 -0.0036381483
-0.017337121 0.0056033107 -0.016813951
-0.016842874 0.0010484986 -0.014313407
-0.017108547 0.0061986279 -0.019762442
-0.016509341 -0.002850259 -0.011151973
-0.016076537 -0.0084305899 -0.0061399303
-0.016317222 0.0028924902 -0.019565612
-0.015583857 -0.0014250043 -0.016843425
-0.015655695 0.0035153588 -0.022512123
-0.015287716 -0.009914943 -0.0076601524
-0.013897069 -0.0067076618 -0.015135545
-0.013921409 -0.010003883 -0.011354811
-0.013758313 -0.011819251 -0.0096408017
-0.013975875 6.4407941e-06 -0.022568738
-0.012723627 -0.0043403404 -0.01990605
-0.01297848 0.00089977728 -0.025266357
-0.010870383 -0.0089174639 -0.017507324
-0.010915707 -0.012298345 -0.013809424
-0.010747303 -0.014092056 -0.012074223
-0.010864673 -0.0021097937 -0.024852555
-0.0093066683 -0.0062419716 -0.021994688
-0.0095949806 -0.00097109051 -0.027322486
-0.0087750508 -0.0099065844 -0.018612357
-0.0076173432 -0.015486603 -0.013642494
-0.007409689 -0.0034671102 -0.026402911
-0.0058800913 -0.0073058289 -0.023251969
-0.0058559533 -0.0020949994 -0.028657716
-0.0035912124 -0.0041770795 -0.027331751
-0.0040605664 -0.016348699 -0.014707057
-0.0009740293 -0.011347261 -0.020500246
-0.001164889 -0.014864098 -0.016928822
-0.00096126273 -0.016623922 -0.015162032
-0.002098185 -0.0025228579 -0.029302856
-0.00080984086 -0.0043125665 -0.027629329
0.00099295564 -0.0077404827 -0.024086468
0.00076256134 -0.0024524077 -0.029400589
0.0034434367 -0.010970313 -0.020384874
0.0033320151 -0.014548874 -0.0168794
0.0035152808 -0.016292943 -0.01509577
0.0035600383 -0.0038332914 -0.027409557
0.0053270869 -0.0069642691 -0.023569737
0.0050408859 -0.0016766149 -0.028881002
0.0059063528 -0.010389684 -0.019952673
0.0071029738 -0.015376554 -0.01439609
0.0073198844 -0.0027141136 -0.026518593
0.0087452438 -0.0056873905 -0.022502147
0.0087300446 -0.00026145589 -0.027691985
0.010605453 -0.0010100338 -0.025019014
0.010384401 -0.013907971 -0.013130119
0.012607895 -0.0069025336 -0.016882721
0.012550708 -0.010642422 -0.013540626
0.012719765 -0.012346861 -0.011716813
0.011665232 0.0015756481 -0.026039772
0.0125785 0.00045685773 -0.023678029
0.013730774 -0.0021215908 -0.019253505
0.013463622 0.0032084433 -0.024523806
0.014193071 -0.0053758537 -0.015459629
0.014787538 -0.010309821 -0.0098152161
0.014750114 0.0029224092 -0.021357004
0.015828485 -0.0029692629 -0.01316572
0.015850754 -0.0068444498 -0.0099626351
0.015996831 -0.008525027 -0.008113781
0.01565632 0.0045429133 -0.019800942
0.016243314 0.0020620555 -0.015246373
0.015970407 0.0074758036 -0.020433208
0.016571416 -0.0010712382 -0.011324508
0.016994135 -0.005904031 -0.0055695586
0.01112663 0.0078931935 -0.011024836
0.011803644 0.0020963659 -0.008708369
0.012064254 -0.002617745 -0.0033113509
0.011275688 0.010815881 -0.017164798
0.011657763 -0.00028856774 -0.0031012055
0.010672061 0.0026763005 -0.0026928931
0.010534447 0.013421519 -0.015364381
0.0084032025 0.0064901803 -0.0023410209
0.0087168887 0.015986988 -0.013433198
0.0053709298 0.0092737759 -0.0020743124
0.0060292035 0.017949384 -0.011874929
0.0018578675 0.010767631 -0.001917623
0.002721902 0.019125799 -0.010834817
-0.0024950514 0.019268554 -0.010442847
-0.001808539 0.010832519 -0.0018855631
-0.0052865595 0.0094623817 -0.0019811224
-0.0089571737 0.016467575 -0.012149096
-0.0082520116 0.0067849327 -0.0021953862
-0.011161342 0.014011001 -0.013794858
-0.010428498 0.0030497254 -0.002508387
-0.011154038 0.00089124287 -0.0026930869
-0.012250681 0.0097252494 -0.013983134
-0.012382845 0.011135527 -0.015779827
-0.011613153 -0.0013950907 -0.0028909519
-0.012059115 -0.00018055853 -0.0087617915
-0.012472692 0.0068051964 -0.015905606
-0.011771718 -0.0047845924 -0.0033109915
-0.012282275 0.0044233557 -0.011768702
0.00075141154 0.0011189643 -0.02585352
0.0038249157 -0.0072111087 -0.016674299
0.0034776758 -0.00015424681 -0.023751393
0.0034460537 -0.012652484 -0.011476696
0.0023583621 -0.0039737029 -0.02042605
0.0048076548 -0.010494983 -0.012940336
0.0043062326 0.0019204447 -0.025266016
0.0058300868 -0.011909917 -0.010879064
0.0072882753 -0.0094123352 -0.012010662
0.0075716693 -0.0019321099 -0.018704316
0.006997006 0.0013487085 -0.022465236
0.007860994 -0.01088204 -0.0099774171
0.0083062984 0.0041125678 -0.023323689
0.010562092 -0.0028581053 -0.012746634
0.01018912 0.0042373585 -0.019783888
0.01049163 -0.0086143324 -0.0078797601
0.0096838512 -0.00015316741 -0.017061615
0.01111191 -0.0058549074 -0.0087022278
0.010481849 0.0066796774 -0.020902043
0.011589741 -0.0068863258 -0.0062281974
0.011927959 -0.0038846836 -0.006793607
0.011470918 0.0081387954 -0.01598485
0.011615956 0.003826868 -0.013222648
-0.011769922 -0.0042781923 -0.0057952441
-0.012434012 0.0078528114 -0.018393829
-0.011475194 -0.0067590466 -0.004749788
-0.011060974 -0.006224717 -0.0077697262
-0.011089576 0.00022950466 -0.015463922
-0.011507975 0.0040518586 -0.018696252
-0.010702839 -0.0083789323 -0.0064036287
-0.010091537 -0.0042606993 -0.012928756
-0.0093784118 -0.0082566161 -0.0098860525
-0.0091877999 -0.010101333 -0.0082028005
-0.010282956 0.0042354641 -0.022111986
-0.0078274086 -0.009406466 -0.011118785
-0.0078577977 0.0025432673 -0.023934517
-0.0067261523 -0.0065644206 -0.015413649
-0.0064131245 -0.011843123 -0.010095065
-0.0031633768 -0.0075998642 -0.016650699
-0.0036487971 -0.00055116811 -0.023727803
-0.0032674083 -0.012803406 -0.011233032
-0.0045094369 -0.0038470568 -0.019897711
0.00051111914 -0.0077625271 -0.017027617
-1.2306497e-05 -0.00073292176 -0.024121448
-0.00083923154 -0.0042704465 -0.020533282
-0.001447225 0.0010139965 -0.025828876
-0.00062535144 -0.013070425 -0.011653058
-0.010170067 0.011195344 0.0096393414
0.0099364873 0.013165528 0.013322543
0.01116943 0.0078227576 0.011658739
0.011221662 0.010153729 0.015183114
0.011633161 0.0040865503 0.013557021
0.011405082 0.0073454995 0.017362803
0.010573478 0.0049980711 0.019669145
0.010006329 -0.0072577056 0.010665175
0.0081224367 -0.0088334195 0.012134597
0.0074637551 -0.0055736229 0.015913963
0.0031305291 -0.0036959371 0.020862136
0.00066939555 -0.0076591056 0.017603386
-0.001651369 -0.011197617 0.013926808
-0.0057463059 -0.0033945648 0.020032622
-0.0077974526 0.00090939528 0.022681456
-0.0090507418 -0.0085130855 0.010793444
-0.010621579 -0.00687165 0.0090529397
0.015645517 0.01399745 0.015749991
0.012332894 0.018951297 0.011920277
0.017076695 -0.0025418254 0.0063524507
0.016422747 -0.0055930242 0.0093755983
0.012630068 -0.010492345 0.014067028
0.0091764033 -0.012634108 0.016011287
0.0072269514 -0.013455186 0.016719516
0.0045714248 -0.01422061 0.017329972
-0.0010364912 -0.014770091 0.017548408
-0.0054465476 -0.014264829 0.016779508
-0.0075066183 -0.013725061 0.016115513
-0.00992213 -0.012758084 0.015001696
-0.013842447 -0.010015743 0.012016896
-0.015888032 -0.0072439332 0.009113837
-0.016507441 -0.005749777 0.0075776242
-0.017051445 -0.00041802437 0.0092845224
-0.017497793 0.0080042016 -0.01537716
-0.01727394 0.0035235675 -0.012150597
0.017073249 -0.0029024186 -0.00611981
0.016831262 0.002019489 -0.0085906722
-0.016525071 -0.0056932187 -0.0069216471
-0.015938409 -0.0072032958 -0.0084555615
-0.01250275 -0.011233391 -0.012658885
-0.0090720272 -0.013201553 -0.014814395
-0.0071328459 -0.013924818 -0.015646275
-0.0049942359 -0.010970459 -0.01989042
-0.0045620892 -0.014535682 -0.016403563
-0.0020854175 -0.0077995174 -0.023964643
0.0011189282 -0.014801959 -0.017000988
0.005535325 -0.014057422 -0.016520534
0.0076031722 -0.013406465 -0.015995339
0.0095568188 -0.0089157904 -0.018703062
0.0099614374 -0.012337772 -0.015072351
0.011777103 -0.0038686793 -0.020873865
0.013979929 -0.0093354275 -0.012326542
0.01532515 0.0058753649 -0.021984639
0.015493495 0.0003196022 -0.0169327
0.016562926 -0.0052824868 -0.0084533338
0.011188602 0.010307607 -0.014935913
0.0083591305 0.012596254 -0.0090158451
0.00047467463 0.019404648 -0.010492116
-0.0067804893 0.017939255 -0.011283441
-0.01187282 0.0034842787 -0.0076450408
0.0015527774 -0.011206265 -0.013455853
0.0048197471 -0.0032957077 -0.019897072
0.0073404908 -0.0057330905 -0.015412685
0.0093483869 -0.007944731 -0.010674074
0.010873307 0.0015274973 -0.015462417
0.01125524 0.0065550664 -0.017544869
0.011769364 -8.7136636e-05 -0.010065798
-0.012098197 0.0024253761 -0.013224274
-0.0097057465 -0.0013026514 -0.01706649
-0.0097367316 0.0020452754 -0.020792641
-0.0074029826 -0.0028171029 -0.01870534
-0.0069940733 0.00040435302 -0.022582864
-0.002715487 -0.011160583 -0.013160292
-0.01165548 -0.0045392103 0.0019917488
0.00936497 0.016565856 0.015849289
0.010827644 0.014045041 0.018070828
0.011209136 0.011253396 0.020519253
0.010476569 0.0087688491 0.022969078
0.0026981514 0.0033865736 0.027908508
-0.0061978968 0.0037022175 0.02706353
-0.012514187 0.0095838103 0.020786125
0.017199846 -0.0069903396 0.0037342124
0.015523719 -0.011179991 0.0078391358
0.013428988 0.0052105878 0.026715212
0.012984646 -0.013912037 0.010430068
0.010586604 0.0027957109 0.02896985
0.0095399003 -0.016100356 0.012421582
0.0039134044 -0.017922774 0.013916355
0.00080600008 -0.00050471001 0.031701189
-0.0006097015 -0.018311005 0.014037389
-0.0035452656 -0.00051694014 0.031455096
-0.0050660148 -0.017841239 0.013301361
-0.010406017 -0.015924111 0.011060391
-0.012974476 0.0027286799 0.027638137
-0.013507163 -0.013676183 0.0086203925
-0.015558021 0.0051282998 0.025076639
-0.015619352 -0.010902077 0.0057110675
-0.016610757 -0.0076734629 0.0024121888
-0.017655162 0.010179708 -0.019367434
-0.01486143 -0.012155831 -0.0063841194
-0.014994517 0.0043572132 -0.025241157
-0.012428109 -0.014651697 -0.0090051815
-0.012192172 0.0020723611 -0.02767431
-0.0090034259 -0.016664743 -0.011204908
-0.0032159071 -0.01821371 -0.013082303
-0.0024638418 -0.00075235683 -0.031049542
0.0011273734 -0.01833592 -0.013458252
0.0018891264 -0.00054455921 -0.031098358
0.0055892225 -0.017621281 -0.01301015
0.011089623 -0.015318061 -0.011045448
0.011378167 0.0031962811 -0.027939886
0.014072284 -0.012974588 -0.0088931881
0.014937023 0.0071182093 -0.024253977
0.011164296 0.012603105 -0.018748023
0.00089731812 0.0029093691 -0.027610429
0.0044137724 0.0037569252 -0.026974922
0.010464698 0.0086022047 -0.022518195
-0.012498159 0.0094487537 -0.020331528
-0.010298448 0.005909428 -0.023975063
-0.0077654291 0.0042061172 -0.02581495
-0.012560887 0.012506133 0.018173788
0.0074066985 0.0054289941 0.026138451
-0.0009370055 0.0029249375 0.02815593
-0.0091657639 0.0051386114 0.025445845
-0.011339466 0.0071627107 0.023285527
-0.011613961 -0.007018337 0.0024851039
0.015902558 0.014341421 0.018082995
-0.017132418 0.014260121 0.016390633
-0.017688243 0.010953115 0.019169148
0.01617383 0.01098524 0.021083143
0.015337309 0.008032402 0.023996741
0.0088177659 0.0017666759 0.029897492
0.0050559025 0.00029145717 0.031154554
-0.005728798 -0.00021360465 0.03102104
-0.0095832478 0.00089966669 0.029674973
-0.016512005 0.0065355897 0.023607735
-0.017622869 0.012043841 -0.017773088
-0.016576787 -0.007792565 -0.0022069737
0.015704812 0.014900419 -0.016953131
0.016231222 0.011641282 -0.019838376
-0.017379235 0.0085409358 -0.020946883
-0.016081162 0.0057278704 -0.023816381
-0.010439962 0.0011271692 -0.028715607
-0.0067020319 -0.00016662793 -0.030219473
0.0040786806 -0.00012880366 -0.030813854
0.0079541411 0.0011853031 -0.029736102
0.012839358 0.0044495016 -0.026781075
0.01627784 -0.0099485843 -0.0060176142
0.01565806 0.0086493213 -0.022775831
-0.012207354 0.013607065 -0.01674659
0.0074468069 0.0053126886 -0.025607821
-0.0045035873 0.0031079769 -0.027096618
0.012281267 -0.0063709356 0.00282057
0.011898549 -0.008124752 0.0045578554
0.010594627 -0.010349037 0.0067125745
0.0089053642 -0.011951229 0.0082201213
0.0057105478 -0.013702903 0.0097882859
0.0015534442 -0.014698576 0.010540638
-0.00082220696 -0.014772095 0.010473359
-0.0031231623 -0.014515739 0.010079477
-0.0083416654 -0.012416264 0.0076627284
-0.010009383 -0.01090212 0.0060442127
-0.011067441 -0.0092733428 0.0043468587
-0.010769965 -0.015782498 -0.010225276
0.0034595709 -0.018082222 -0.013343034
0.017212676 -0.0069408547 -0.0030857027
-0.011677118 -0.0061388584 -0.0015125535
0.0034639519 -0.01443308 -0.0097196493
0.0073783882 -0.012992872 -0.0085189622
0.0091508664 -0.011809796 -0.007448053
0.010547038 -0.01043593 -0.0061656274
-0.010901039 -0.0096469391 -0.0041249096
-0.0098328879 -0.011139936 -0.0056700855
-0.0081797866 -0.012570821 -0.0071878731
-0.0062340582 -0.013637439 -0.0083610918
-0.0031979932 -0.014556371 -0.0094515681
-0.00047205575 -0.014831021 -0.0098840892
-0.0012493897 0.0033716667 -0.030551774
