# .PCD v0.7 - Point Cloud Data file format
VERSION 0.7
FIELDS x y z
SIZE 4 4 4
TYPE F F F
COUNT 1 1 1
WIDTH 1341
HEIGHT 1
VIEWPOINT 0 0 0 1 0 0 0
POINTS 1341
DATA ascii
-0.068826042 -0.067089416 0.69499999
-0.10304534 -0.063287273 0.69499999
-0.10012098 -0.063241743 0.69449997
-0.10304534 -0.059485126 0.69499999
-0.10114427 -0.059485126 0.69499999
-0.11255071 -0.03287011 0.69499999
-0.10946166 -0.031849999 0.69350004
-0.10669375 -0.03187228 0.69400001
-0.10494641 -0.030969037 0.69499999
-0.15057217 -0.027166892 0.69499999
-0.14845717 -0.027127804 0.69400001
-0.14560968 -0.028076973 0.69400001
-0.11825392 -0.029067965 0.69499999
-0.11523627 -0.029026141 0.69400001
-0.11238876 -0.028075606 0.69400001
-0.1096991 -0.027166892 0.69499999
-0.10654002 -0.028984318 0.69300002
-0.10392038 -0.029047053 0.69449997
-0.15247323 -0.02526582 0.69499999
-0.14445205 -0.025193114 0.69300002
-0.14255646 -0.025193114 0.69300002
-0.13981453 -0.02521129 0.69350004
-0.13726464 -0.02526582 0.69499999
-0.11894788 -0.02521129 0.69350004
-0.11507022 -0.025193114 0.69300002
-0.11222682 -0.025193114 0.69300002
-0.10859209 -0.025229467 0.69400001
-0.10684749 -0.02526582 0.69499999
-0.15393007 -0.02140191 0.69300002
-0.15108666 -0.023297511 0.69300002
-0.14845717 -0.02333113 0.69400001
-0.1457139 -0.023347938 0.69449997
-0.14296786 -0.023364747 0.69499999
-0.13981317 -0.021417351 0.69350004
-0.13726464 -0.021463675 0.69499999
-0.13402624 -0.02140191 0.69300002
-0.13156143 -0.021463675 0.69499999
-0.12205607 -0.021463675 0.69499999
-0.11886144 -0.02140191 0.69300002
-0.1152349 -0.022383329 0.69400001
-0.11255071 -0.023364747 0.69499999
-0.1096991 -0.022414211 0.69499999
-0.046013169 -0.021463675 0.69499999
-0.038408879 -0.021463675 0.69499999
-0.1543743 -0.019562602 0.69499999
-0.14086382 -0.019534456 0.69400001
-0.12205607 -0.019562602 0.69499999
-0.11903295 -0.019534456 0.69400001
-0.11523627 -0.019534456 0.69400001
-0.11238877 -0.019534456 0.69400001
-0.1543743 -0.017661531 0.69499999
-0.14550544 -0.015726443 0.69350004
-0.14255646 -0.015715105 0.69300002
-0.13971305 -0.015715105 0.69300002
-0.13516882 -0.01668695 0.69400001
-0.1334625 -0.017661531 0.69499999
-0.12757546 -0.017636118 0.69400001
-0.12429176 -0.016986398 0.69333339
-0.12188045 -0.015737781 0.69400001
-0.11445178 -0.015760459 0.69499999
-0.11222682 -0.017610706 0.69300002
-0.11064963 -0.017661531 0.69499999
-0.049743641 -0.017636118 0.69400001
-0.046929233 -0.017648824 0.69449997
-0.037432082 -0.017648824 0.69449997
-0.034556944 -0.017636118 0.69400001
-0.030804591 -0.017661531 0.69499999
-0.028903518 -0.017661531 0.69499999
-0.14561103 -0.013839444 0.69400001
-0.13051762 -0.013849415 0.69449997
-0.12739164 -0.013819504 0.69300002
-0.12463878 -0.013829474 0.69350004
-0.11238877 -0.013839445 0.69400001
-0.047914241 -0.013859386 0.69499999
-0.025101373 -0.013859386 0.69499999
-0.022217751 -0.013839445 0.69400001
-0.019370247 -0.013839445 0.69400001
-0.017497085 -0.013859386 0.69499999
-0.14276215 -0.01004277 0.69400001
-0.13981317 -0.010035534 0.69350004
-0.13626543 -0.011004159 0.69474995
-0.1333665 -0.011000542 0.69449997
-0.13146678 -0.011000542 0.69449997
-0.12188045 -0.011941108 0.69400001
-0.11886144 -0.010028299 0.69300002
-0.11635285 -0.010057241 0.69499999
-0.019398157 -0.011007777 0.69499999
-0.017497085 -0.010057241 0.69499999
-0.13042434 -0.0062460965 0.69400001
-0.12766737 -0.0072011324 0.69449997
-0.12549603 -0.008132698 0.69300002
-0.11911802 -0.0081503 0.69449997
-0.11428711 -0.006246096 0.69400001
-0.11255071 -0.0062550963 0.69499999
-0.1096991 -0.0062550963 0.69499999
-0.12205607 -0.0043540234 0.69499999
-0.11894788 -0.0043446263 0.69350004
-0.11515257 -0.0043446263 0.69350004
-0.11255071 -0.0043540234 0.69499999
-0.12395714 -0.0024529509 0.69499999
-0.12188045 -0.0024494214 0.69400001
-0.11980924 -0.0024458922 0.69300002
-0.11445178 -0.00055187842 0.69499999
-0.11222682 -0.00055029028 0.69300002
-0.10946303 -0.0014991721 0.69350004
-0.10684749 -0.0024529509 0.69499999
-0.10494641 -0.0024529509 0.69499999
-0.10114427 -0.0015024147 0.69499999
-0.049815316 -0.0024529509 0.69499999
-0.11635285 0.001349194 0.69499999
-0.10399587 0.001349194 0.69499999
-0.10004958 0.0013472527 0.69400001
-0.057419606 0.001349194 0.69499999
-0.053540312 0.0013472527 0.69400001
-0.11445178 0.0032502664 0.69499999
-0.11246973 0.0041984646 0.69449997
-0.10946302 0.0051402207 0.69350004
-0.10494641 0.0051513389 0.69499999
-0.10494641 0.0070524113 0.69499999
-0.0478453 0.014635613 0.69400001
-0.070523582 0.022196932 0.69300002
-0.21330754 0.029865282 0.69499999
-0.049743641 0.02982231 0.69400001
-0.21458931 0.03167494 0.69300002
-0.22249232 0.041212332 0.69400001
-0.22217174 0.044944156 0.69300002
-0.082133554 0.064084582 0.69499999
-0.11876438 -0.10174602 0.69800001
-0.11610798 -0.10101242 0.69733334
-0.1128746 -0.10160026 0.69700003
-0.11001478 -0.10160026 0.69700003
-0.10635407 -0.10174602 0.69800001
-0.037593774 -0.10167314 0.69749999
-0.034656528 -0.10145448 0.69599998
-0.031856906 -0.10068274 0.69725001
-0.12067366 -0.097927473 0.69800001
-0.11165572 -0.09719751 0.69733334
-0.10627857 -0.097857326 0.69749999
-0.031846508 -0.097787179 0.69700003
-0.028054219 -0.097857326 0.69749999
-0.025209725 -0.097927473 0.69800001
-0.12050078 -0.093974091 0.69700003
-0.11859423 -0.093974091 0.69700003
-0.11565207 -0.095811844 0.6965
-0.11271265 -0.09574306 0.69599998
-0.10319361 -0.093839258 0.69599998
-0.10055347 -0.094041504 0.69749999
-0.097762316 -0.094108917 0.69800001
-0.021391168 -0.094108917 0.69800001
-0.019426066 -0.093839258 0.69599998
-0.11494582 -0.091244996 0.69800001
-0.1128746 -0.090160996 0.69700003
-0.11080883 -0.09098354 0.69599998
-0.10604931 -0.091935448 0.69599998
-0.10334188 -0.091115639 0.69700003
-0.10051776 -0.091147289 0.69725001
-0.097762316 -0.090290353 0.69800001
-0.095853031 -0.090290353 0.69800001
-0.091079831 -0.090290353 0.69800001
-0.016936185 -0.090926774 0.69800001
-0.013754055 -0.090290353 0.69800001
-0.010867417 -0.090096317 0.6965
-0.008026218 -0.090290353 0.69800001
-0.10921799 -0.088381082 0.69800001
-0.10620169 -0.088254459 0.69700003
-0.10349015 -0.088381082 0.69800001
-0.099671595 -0.088381082 0.69800001
-0.086306639 -0.088381082 0.69800001
-0.0099354973 -0.088381082 0.69800001
-0.10921799 -0.086471796 0.69800001
-0.10620169 -0.086347915 0.69700003
-0.10334188 -0.086347915 0.69700003
-0.10055484 -0.086409852 0.69749999
-0.097692281 -0.085455216 0.69749999
-0.094693772 -0.086285971 0.6965
-0.091902621 -0.086347915 0.69700003
-0.089041442 -0.086347908 0.69700003
-0.085228354 -0.086347908 0.69700003
-0.0099354973 -0.086471796 0.69800001
-0.0070614479 -0.086347915 0.69700003
-0.0041956049 -0.086224027 0.69599998
-0.0013420969 -0.086409852 0.69749999
-0.097762316 -0.082653239 0.69800001
-0.09394376 -0.082653239 0.69800001
-0.092034474 -0.082653239 0.69800001
-0.089106001 -0.082594037 0.69749999
-0.086306639 -0.082653239 0.69800001
-0.080578804 -0.082653239 0.69800001
0.0015201746 -0.082653239 0.69800001
0.0043715304 -0.082416408 0.69599998
0.0072480105 -0.082653239 0.69800001
-0.099671595 -0.078834683 0.69800001
-0.097622253 -0.078721739 0.69700003
-0.094762444 -0.078721739 0.69700003
-0.091902621 -0.078721739 0.69700003
-0.089106001 -0.078778207 0.69749999
-0.08529155 -0.078778207 0.69749999
-0.082369909 -0.078721739 0.69700003
-0.079566449 -0.078778207 0.69749999
-0.076760247 -0.078834683 0.69800001
-0.073790461 -0.078721739 0.69700003
-0.071032412 -0.078834683 0.69800001
-0.10349015 -0.075016126 0.69800001
-0.099671595 -0.075016126 0.69800001
-0.088215925 -0.075016126 0.69800001
-0.084397361 -0.075016126 0.69800001
-0.08248809 -0.075016126 0.69800001
-0.10349015 -0.073106848 0.69800001
-0.097622253 -0.073954016 0.69700003
-0.094693772 -0.07485491 0.6965
-0.079396009 -0.074801177 0.69599998
-0.074108221 -0.074272223 0.69700003
-0.10539942 -0.071197569 0.69800001
-0.10334188 -0.070140928 0.69700003
-0.10051845 -0.070166424 0.69725001
-0.097762316 -0.069288291 0.69800001
-0.094829738 -0.07114657 0.69749999
-0.078669526 -0.071197569 0.69800001
-0.073790461 -0.071095571 0.69700003
-0.070294224 -0.070460051 0.69700003
-0.067117557 -0.071095571 0.69700003
-0.10921799 -0.067379013 0.69800001
-0.10612482 -0.067234218 0.6965
-0.10319361 -0.067185946 0.69599998
-0.1012898 -0.067185946 0.69599998
-0.095715709 -0.067282483 0.69700003
-0.070828877 -0.067185946 0.69599998
-0.067117557 -0.067282483 0.69700003
-0.10969702 -0.064105824 0.69700003
-0.10616326 -0.064400584 0.69675004
-0.10334188 -0.065375939 0.69700003
-0.1004093 -0.065329038 0.6965
-0.097622253 -0.064424038 0.69700003
-0.095715709 -0.063469395 0.69700003
-0.10921799 -0.061651174 0.69800001
-0.10627857 -0.061607011 0.69749999
-0.10334188 -0.061562851 0.69700003
-0.10143534 -0.061562851 0.69700003
-0.10509741 -0.059570715 0.69599998
-0.099385999 -0.059570715 0.69599998
-0.097622253 -0.059656307 0.69700003
-0.040425956 -0.040590875 0.69700003
-0.037538506 -0.040561754 0.6965
-0.034706324 -0.040590875 0.69700003
-0.11494582 -0.036830552 0.69800001
-0.11200093 -0.036804169 0.69749999
-0.040454954 -0.037758812 0.69749999
-0.037564769 -0.036777787 0.69700003
-0.03475612 -0.036830552 0.69800001
-0.032846838 -0.036830552 0.69800001
-0.14549428 -0.033011995 0.69800001
-0.11685509 -0.033011995 0.69800001
-0.11200093 -0.034896262 0.69749999
-0.043347873 -0.033011995 0.69800001
-0.040483955 -0.033011995 0.69800001
-0.14719239 -0.031058159 0.69700003
-0.14549428 -0.031102717 0.69800001
-0.11478115 -0.032964703 0.69700003
-0.1128746 -0.031058159 0.69700003
-0.11080883 -0.031013597 0.69599998
-0.10509741 -0.032917406 0.69599998
-0.15078881 -0.029109789 0.69599998
-0.14507738 -0.027205981 0.69599998
-0.14252751 -0.028218573 0.69749999
-0.13976644 -0.02728416 0.69800001
-0.12041433 -0.028177429 0.6965
-0.11859423 -0.027245071 0.69700003
-0.11556836 -0.027205981 0.69599998
-0.10715497 -0.027245071 0.69700003
-0.04621179 -0.02919344 0.69800001
-0.043285772 -0.029151617 0.69700003
-0.13555835 -0.025302174 0.69599998
-0.13403861 -0.025374884 0.69800001
-0.12240732 -0.025338531 0.69700003
-0.10524842 -0.025338531 0.69700003
-0.10349015 -0.025374884 0.69800001
-0.04621179 -0.025374884 0.69800001
-0.043347873 -0.025374884 0.69800001
-0.15504067 -0.023465604 0.69800001
-0.14126977 -0.023398366 0.69599998
-0.13936596 -0.023398366 0.69599998
-0.136609 -0.023415174 0.6965
-0.13403861 -0.023465604 0.69800001
-0.13022006 -0.021556325 0.69800001
-0.12640148 -0.021556325 0.69800001
-0.12431386 -0.021525443 0.69700003
-0.12145541 -0.023431985 0.69700003
-0.11842407 -0.023398366 0.69599998
-0.11652026 -0.023398366 0.69599998
-0.10906152 -0.023431985 0.69700003
-0.10656979 -0.022172162 0.69733334
-0.049958672 -0.021525443 0.69700003
-0.047983181 -0.021494558 0.69599998
-0.043583278 -0.022151574 0.69666672
-0.040367953 -0.021494558 0.69599998
-0.036612868 -0.021525443 0.69700003
-0.034706324 -0.021525443 0.69700003
-0.031824347 -0.021510001 0.6965
-0.028986694 -0.021525443 0.69700003
-0.13936596 -0.01959075 0.69599998
-0.13680515 -0.019632973 0.69749999
-0.13298795 -0.019632973 0.69749999
-0.12622041 -0.019618899 0.69700003
-0.12413549 -0.01959075 0.69599998
-0.11080883 -0.01959075 0.69599998
-0.049041238 -0.019632973 0.69749999
-0.046145584 -0.019618899 0.69700003
-0.044302512 -0.019647047 0.69800001
-0.040483955 -0.019647047 0.69800001
-0.037538506 -0.019604824 0.6965
-0.03475612 -0.019647047 0.69800001
-0.031824347 -0.019604824 0.6965
-0.028986694 -0.019618899 0.69700003
-0.15122211 -0.01582849 0.69800001
-0.148885 -0.015783135 0.69599998
-0.13365453 -0.015783135 0.69599998
-0.13089347 -0.01769965 0.6965
-0.12699121 -0.015783135 0.69599998
-0.1128746 -0.015805813 0.69700003
-0.10906152 -0.017712357 0.69700003
-0.10730871 -0.017737769 0.69800001
-0.0517908 -0.017686943 0.69599998
-0.049041238 -0.01581715 0.69749999
-0.043316141 -0.017725062 0.69749999
-0.040483955 -0.017737769 0.69800001
-0.032752719 -0.017686943 0.69599998
-0.027729528 -0.016447974 0.69733334
-0.025209725 -0.016783129 0.69800001
-0.022345807 -0.016783129 0.69800001
-0.01948189 -0.016783129 0.69800001
-0.016617972 -0.017737769 0.69800001
-0.013754055 -0.017737769 0.69800001
-0.14909892 -0.01389927 0.69700003
-0.14549428 -0.012009933 0.69800001
-0.051939625 -0.013919211 0.69800001
-0.049886994 -0.013879327 0.69599998
-0.046145584 -0.01389927 0.69700003
-0.044302512 -0.013919211 0.69800001
-0.028054219 -0.01390924 0.69749999
-0.015640892 -0.012944629 0.69700003
-0.14528583 -0.010086183 0.69700003
-0.14222167 -0.011975519 0.69599998
-0.13936596 -0.011975519 0.69599998
-0.12984692 -0.011975519 0.69599998
-0.12708175 -0.011984123 0.6965
-0.12413549 -0.011975519 0.69599998
-0.12032788 -0.011975519 0.69599998
-0.11842407 -0.011975519 0.69599998
-0.11581676 -0.01104669 0.69749999
-0.11112726 -0.010100653 0.69800001
-0.049005397 -0.010086183 0.69700003
-0.04621179 -0.010100653 0.69800001
-0.027119005 -0.010100653 0.69800001
-0.025209725 -0.010100653 0.69800001
-0.022306133 -0.011035153 0.69675004
-0.016570356 -0.011023615 0.69599998
-0.13384658 -0.0062730969 0.69700003
-0.13089347 -0.0081737712 0.6965
-0.11668769 -0.0081796395 0.69700003
-0.1062772 -0.0062775966 0.69749999
-0.052818485 -0.0062730969 0.69700003
-0.049886994 -0.0062640961 0.69599998
-0.047064383 -0.0062685963 0.6965
-0.13022006 -0.0043728179 0.69800001
-0.12717368 -0.0043665534 0.69700003
-0.12413549 -0.0043602884 0.69599998
-0.10993655 -0.0043634209 0.6965
-0.10627857 -0.0043696854 0.69749999
-0.12708312 -0.002458245 0.6965
-0.12154186 -0.00055386359 0.69749999
-0.11876438 -0.00055426062 0.69800001
-0.11652026 -0.00055267249 0.69599998
-0.10612482 -0.00055306952 0.6965
-0.10334188 -0.0015053704 0.69700003
-0.099385999 -0.0015045763 0.69599998
-0.055758186 -0.0024635391 0.69800001
-0.052818485 -0.0015053704 0.69700003
-0.047064383 -0.002458245 0.6965
-0.044302512 -0.0024635391 0.69800001
-0.12050078 0.0013530767 0.69700003
-0.11859423 0.0013530767 0.69700003
-0.097762316 0.0013550179 0.69800001
-0.051865216 0.0013530767 0.69700003
-0.049005397 0.0013530767 0.69700003
-0.046079375 0.0013511353 0.69599998
-0.044239044 0.0013530767 0.69700003
-0.11573578 0.0042115236 0.69700003
-0.10509741 0.0032549431 0.69599998
-0.10326774 0.0042091855 0.6965
-0.10158087 0.0032642963 0.69800001
-0.1120819 0.0070828535 0.69800001
-0.10913976 0.0080324188 0.69749999
-0.10641786 0.0083360579 0.69633335
-0.10334188 0.0070727062 0.69700003
-0.22950254 0.010901411 0.69800001
-0.22759326 0.010901411 0.69800001
-0.10921799 0.010901411 0.69800001
-0.10620169 0.010885794 0.69700003
-0.072837189 0.010885794 0.69700003
-0.22917375 0.012792337 0.69700003
-0.21613757 0.014719968 0.69800001
-0.057502225 0.018485405 0.69599998
-0.21613757 0.022357082 0.69800001
-0.2139214 0.026138138 0.69700003
-0.084397361 0.026175639 0.69800001
-0.22950254 0.033812754 0.69800001
-0.21932589 0.03371587 0.69599998
-0.21742208 0.03371587 0.69599998
-0.21582793 0.033764314 0.69700003
-0.080578804 0.041449867 0.69800001
-0.055758186 0.041449867 0.69800001
-0.080578804 0.045268428 0.69800001
-0.061309837 0.06798441 0.69599998
-0.11543985 -0.10601829 0.70099998
-0.11256362 -0.10601829 0.70099998
-0.037781727 -0.10601829 0.70099998
-0.034905497 -0.10601829 0.70099998
-0.11543985 -0.10410081 0.70099998
-0.11248265 -0.10402656 0.70050001
-0.1096874 -0.10410081 0.70099998
-0.040657952 -0.10218333 0.70099998
-0.037781727 -0.10410081 0.70099998
-0.029153043 -0.10218333 0.70099998
-0.11893453 -0.099979773 0.699
-0.1151105 -0.099979773 0.699
-0.11232208 -0.10005128 0.69949996
-0.10953093 -0.1001228 0.69999999
-0.1065833 -0.10005128 0.69949996
-0.036822986 -0.10026584 0.70099998
-0.034805913 -0.099979773 0.699
-0.029111456 -0.1001228 0.69999999
-0.12084654 -0.096155748 0.699
-0.11893453 -0.096155748 0.699
-0.10945269 -0.097180538 0.69949996
-0.1065833 -0.096224532 0.69949996
-0.10363842 -0.097111762 0.699
-0.10128129 -0.097616576 0.70033336
-0.098182492 -0.096430868 0.70099998
-0.036822986 -0.098348357 0.70099998
-0.034805913 -0.098067768 0.699
-0.02723556 -0.096430868 0.70099998
-0.025318075 -0.096430868 0.70099998
-0.02242516 -0.097319461 0.70049995
-0.019565621 -0.097389609 0.70099998
-0.12310979 -0.094513394 0.70099998
-0.096127681 -0.094378568 0.69999999
-0.094078347 -0.094243743 0.699
-0.09229818 -0.094378568 0.69999999
-0.027196709 -0.094378568 0.69999999
-0.025281958 -0.094378568 0.69999999
-0.023333829 -0.094243743 0.699
-0.016653001 -0.094311155 0.69949996
-0.013813169 -0.094513394 0.70099998
-0.12310979 -0.090678416 0.70099998
-0.12101942 -0.091507807 0.69999999
-0.11777237 -0.091144197 0.69966668
-0.097083688 -0.092463814 0.69999999
-0.094078347 -0.09041971 0.699
-0.088342302 -0.09041971 0.699
-0.086430289 -0.09041971 0.699
-0.019509802 -0.091375716 0.699
-0.015685773 -0.092331722 0.699
-0.01377376 -0.092331722 0.699
-0.011895684 -0.092595905 0.70099998
-0.00614323 -0.090678416 0.70099998
-0.11248402 -0.088697627 0.70050001
-0.1017264 -0.088507697 0.699
-0.097902372 -0.088507697 0.699
-0.095168933 -0.088634312 0.69999999
-0.091406733 -0.088697627 0.70050001
-0.088468686 -0.08863432 0.69999999
-0.011878714 -0.08863432 0.69999999
-0.0070860917 -0.088571012 0.69949996
-0.11240441 -0.086719565 0.69999999
-0.10084316 -0.084744245 0.69949996
-0.096127681 -0.084804818 0.69999999
-0.094212934 -0.084804818 0.69999999
-0.091406733 -0.084865391 0.70050001
-0.088468686 -0.084804818 0.69999999
-0.085534737 -0.084744245 0.69949996
-0.082724437 -0.085760824 0.69999999
-0.011878714 -0.086719565 0.69999999
-0.0042197173 -0.084804818 0.69999999
-0.0013456685 -0.084683672 0.699
0.0015234413 -0.085701615 0.69949996
0.0040833545 -0.085565127 0.70099998
-0.1029762 -0.082049735 0.70099998
-0.10054693 -0.082211435 0.69966668
-0.098182492 -0.081090994 0.70099998
-0.095168933 -0.081931323 0.69999999
-0.084518276 -0.082771651 0.699
-0.082606263 -0.082771651 0.699
-0.078894936 -0.081931323 0.69999999
-0.076076433 -0.081990525 0.70049995
-0.073255189 -0.081090994 0.70099998
-0.0013475936 -0.082890064 0.69999999
0.0098270625 -0.082290374 0.7003333
-0.1017264 -0.078947626 0.699
-0.091210321 -0.080859639 0.699
-0.088342302 -0.080859639 0.699
-0.085596561 -0.080975316 0.69999999
-0.082724437 -0.080975316 0.69999999
-0.080809683 -0.080975316 0.69999999
0.0047199666 -0.079774112 0.70066667
0.0072635864 -0.079961471 0.69949996
0.0091966465 -0.079173513 0.70099998
-0.10555042 -0.075123593 0.699
-0.10091319 -0.076189809 0.69999999
-0.098042428 -0.077145815 0.69999999
-0.095034346 -0.077035606 0.699
-0.091242604 -0.076106466 0.69925004
-0.088468686 -0.077145815 0.69999999
-0.085874468 -0.076471739 0.69966668
-0.082606263 -0.077035606 0.699
-0.079738237 -0.077035606 0.699
-0.076870218 -0.077035606 0.699
-0.07405445 -0.07709071 0.69949996
-0.070630699 -0.075906053 0.7003333
-0.10570142 -0.073316321 0.69999999
-0.1007704 -0.073211581 0.699
-0.095034346 -0.073211581 0.699
-0.082842618 -0.073421054 0.70099998
-0.079795957 -0.073263951 0.69949996
-0.076870218 -0.073211581 0.699
-0.073046193 -0.073211581 0.699
-0.07123594 -0.073316321 0.69999999
-0.10682511 -0.0700249 0.69900006
-0.096127681 -0.069486819 0.69999999
-0.094212934 -0.069486819 0.69999999
-0.092430033 -0.071503572 0.70099998
-0.08571884 -0.071503572 0.70099998
-0.082724437 -0.071401574 0.69999999
-0.080694243 -0.071299575 0.699
-0.076021448 -0.070442826 0.69999999
-0.073150687 -0.069486819 0.69999999
-0.069222167 -0.069387555 0.699
-0.067310147 -0.069387555 0.699
-0.065398134 -0.071299575 0.699
-0.11240441 -0.067572072 0.69999999
-0.094078347 -0.067475542 0.699
-0.092430033 -0.067668602 0.70099998
-0.073046193 -0.067475542 0.699
-0.11283013 -0.065080695 0.70066667
-0.094850264 -0.065019079 0.69999999
-0.070304006 -0.064722031 0.70025003
-0.099814393 -0.061739501 0.699
-0.097153716 -0.061871983 0.70050001
-0.10761618 -0.059913076 0.69999999
-0.10378668 -0.057998329 0.69999999
-0.10084179 -0.057956904 0.69949996
-0.098042428 -0.057998329 0.69999999
-0.095990352 -0.059827488 0.699
-0.099957183 -0.056083575 0.69999999
-0.097902372 -0.056003455 0.699
-0.037701566 -0.04838999 0.69949996
-0.034805913 -0.048355401 0.699
-0.031961419 -0.04838999 0.69949996
-0.028133288 -0.04838999 0.69949996
-0.040657952 -0.042741302 0.70099998
-0.038082886 -0.04399839 0.70066667
-0.034855705 -0.044595081 0.69999999
-0.03198358 -0.044595081 0.69999999
-0.042453967 -0.040707346 0.699
-0.032005742 -0.0407947 0.70050001
-0.11735733 -0.036988851 0.70099998
-0.043174107 -0.037592832 0.7003333
-0.037700199 -0.038823083 0.69949996
-0.034905497 -0.038906336 0.70099998
-0.03198358 -0.037893459 0.69999999
-0.14761473 -0.033059292 0.699
-0.14379071 -0.033059292 0.699
-0.11910468 -0.033106584 0.69999999
-0.11527517 -0.035021335 0.69999999
-0.10937446 -0.034971308 0.699
-0.046277996 -0.033059292 0.699
-0.043534182 -0.035071366 0.70099998
-0.040541954 -0.034971308 0.699
-0.038064465 -0.033761512 0.7003333
-0.032988012 -0.035071366 0.70099998
-0.14952675 -0.031147277 0.699
-0.14420211 -0.031236395 0.70099998
-0.11806359 -0.031169556 0.69949996
-0.1151105 -0.031147277 0.699
-0.10363842 -0.031147277 0.699
-0.046410404 -0.031236395 0.70099998
-0.043440342 -0.031169556 0.69949996
-0.040657952 -0.031236395 0.70099998
-0.15378954 -0.027401425 0.70099998
-0.13895534 -0.028651869 0.7003333
-0.12284636 -0.028298801 0.69949996
-0.10555042 -0.027323248 0.699
-0.10378668 -0.027362337 0.69999999
-0.10179916 -0.028298801 0.69949996
-0.048258949 -0.029277088 0.69999999
-0.046410404 -0.027401425 0.70099998
-0.043470711 -0.027362335 0.69999999
-0.040541954 -0.029235264 0.699
-0.037754096 -0.029298 0.70050001
-0.15570703 -0.025483944 0.70099998
-0.13250791 -0.02544759 0.69999999
-0.12484892 -0.02544759 0.69999999
-0.10187193 -0.02544759 0.69999999
-0.049217694 -0.02544759 0.69999999
-0.040599953 -0.02544759 0.69999999
-0.037754096 -0.025465768 0.70050001
-0.034855705 -0.02544759 0.69999999
-0.032988012 -0.025483944 0.70099998
-0.15739965 -0.021618091 0.69999999
-0.13231862 -0.023499221 0.699
-0.12849459 -0.021587208 0.699
-0.12502727 -0.023566457 0.70099998
-0.10585243 -0.023566457 0.70099998
-0.10393494 -0.021648973 0.70099998
-0.052014038 -0.021587208 0.699
-0.048258949 -0.023532839 0.69999999
-0.046277996 -0.023499221 0.699
-0.042453967 -0.023499221 0.699
-0.040599953 -0.023532839 0.69999999
-0.038740467 -0.023566457 0.70099998
-0.034905497 -0.023566457 0.70099998
-0.032988012 -0.023566457 0.70099998
-0.027157856 -0.021587208 0.699
-0.025318075 -0.021648973 0.70099998
-0.022394512 -0.021602649 0.69949996
-0.019509802 -0.021587208 0.699
-0.017648138 -0.021648973 0.70099998
-0.15762451 -0.019731488 0.70099998
-0.1304066 -0.019675193 0.699
-0.12849459 -0.019675193 0.699
-0.10937446 -0.019675193 0.699
-0.10761618 -0.019703342 0.69999999
-0.052088447 -0.019703342 0.69999999
-0.042453967 -0.019675193 0.699
-0.027196709 -0.019703342 0.69999999
-0.02145246 -0.019703342 0.69999999
-0.019537712 -0.019703342 0.69999999
-0.017648138 -0.019731488 0.70099998
-0.15717481 -0.017763181 0.699
-0.15335077 -0.015851166 0.699
-0.13231862 -0.015851166 0.699
-0.1304066 -0.015851166 0.699
-0.11144567 -0.015873842 0.69999999
-0.10953093 -0.015873842 0.69999999
-0.10673567 -0.016842555 0.70050001
-0.052014038 -0.015851166 0.699
-0.046277996 -0.015851166 0.699
-0.043502443 -0.015885182 0.70050001
-0.03775546 -0.015885182 0.70050001
-0.034855705 -0.015873842 0.69999999
-0.03193789 -0.015851166 0.699
-0.016653001 -0.015862504 0.69949996
-0.15378954 -0.013979035 0.70099998
-0.15143876 -0.013939152 0.699
-0.14782591 -0.012044345 0.69999999
-0.11527517 -0.012044345 0.69999999
-0.11240441 -0.013000351 0.69999999
-0.1096874 -0.013979035 0.70099998
-0.054003198 -0.013959094 0.69999999
-0.049217694 -0.012044344 0.69999999
-0.046344198 -0.012044345 0.69999999
-0.043473445 -0.013000351 0.69999999
-0.040599953 -0.013959094 0.69999999
-0.037754096 -0.013969065 0.70050001
-0.034855705 -0.013959094 0.69999999
-0.031961419 -0.013949123 0.69949996
-0.027196709 -0.012044345 0.69999999
-0.025245842 -0.012027139 0.699
-0.013793464 -0.013959094 0.69999999
-0.14803709 -0.010144065 0.70099998
-0.11319848 -0.010115124 0.699
-0.10937446 -0.010115124 0.699
-0.052970044 -0.010115124 0.699
-0.043440342 -0.01012236 0.69949996
-0.040657952 -0.010144065 0.70099998
-0.029111456 -0.010129595 0.69999999
-0.13825215 -0.0072561037 0.69999999
-0.13624004 -0.0072516035 0.69949996
-0.13423063 -0.0082031107 0.699
-0.11527517 -0.0082148463 0.69999999
-0.11232345 -0.0082089789 0.69949996
-0.10953093 -0.0082148463 0.69999999
-0.10393494 -0.0063090967 0.70099998
-0.054080341 -0.0082265809 0.70099998
-0.05216286 -0.0082265809 0.70099998
-0.04925216 -0.0082207136 0.70050001
-0.046344198 -0.0082148463 0.69999999
-0.043791205 -0.0069392584 0.69999999
-0.040657952 -0.0063090967 0.70099998
-0.021483107 -0.0082265809 0.70099998
-0.019551666 -0.0072619715 0.70050001
-0.01763555 -0.0072619715 0.70050001
-0.13250791 -0.0043853475 0.69999999
-0.1029762 -0.004391612 0.70099998
-0.054080341 -0.004391612 0.70099998
-0.052088447 -0.0043853475 0.69999999
-0.049146019 -0.0043790825 0.699
-0.046410404 -0.004391612 0.70099998
-0.043534182 -0.004391612 0.70099998
-0.1304066 -0.0024670686 0.699
-0.12694475 -0.00055664283 0.70099998
-0.12467057 -0.00055505469 0.699
-0.097902372 -0.0015110617 0.699
-0.084639184 -0.0024705979 0.69999999
-0.05599783 -0.00055664283 0.70099998
-0.049146019 -0.00055505469 0.699
-0.046344198 -0.00055584876 0.69999999
-0.043409973 -0.0015110617 0.699
-0.040657952 -0.0024741273 0.70099998
-0.12484892 0.0013589005 0.69999999
-0.12275855 0.0013569592 0.699
-0.055917948 0.0013589005 0.69999999
-0.042575438 0.0013608417 0.70099998
-0.11814866 0.0042296564 0.69999999
-0.10091455 0.0042310245 0.69999999
-0.057832696 0.0032736496 0.69999999
-0.049286634 0.0032783262 0.70099998
-0.046344198 0.0032736496 0.69999999
-0.044429451 0.0032736496 0.69999999
-0.11527517 0.0071031479 0.69999999
-0.11160488 0.0099895224 0.70099998
-0.10363842 0.0090050148 0.699
-0.2240953 0.012829043 0.699
-0.1096874 0.012865749 0.70099998
-0.10761618 0.012847396 0.69999999
-0.077090159 0.014783233 0.70099998
-0.069321193 0.022421142 0.69999999
-0.080809683 0.043483384 0.69999999
-0.05599783 0.043545499 0.70099998
-0.07517267 0.056967892 0.70099998
-0.046344198 0.064545624 0.69999999
-0.036928043 -0.11016669 0.70300001
-0.035054881 -0.1103234 0.704
-0.11785958 -0.10647201 0.704
-0.11000035 -0.10632078 0.70300001
-0.040831953 -0.10647201 0.704
-0.033082131 -0.10632078 0.70300001
-0.11752475 -0.10424932 0.70200002
-0.10807739 -0.10439783 0.70300001
-0.10630544 -0.10454632 0.704
-0.10326864 -0.10247487 0.70300001
-0.042757642 -0.10262063 0.704
-0.040773954 -0.10439783 0.70300001
-0.03401871 -0.10432357 0.70249999
-0.027274415 -0.1023291 0.70200002
-0.025354194 -0.1023291 0.70200002
-0.023500739 -0.10262063 0.704
-0.12153808 -0.1005519 0.70300001
-0.10319588 -0.10048039 0.70249999
-0.040773954 -0.1005519 0.70300001
-0.038795736 -0.10040887 0.70200002
-0.027274415 -0.10040887 0.70200002
-0.02539031 -0.1005519 0.70300001
-0.12363665 -0.096843556 0.704
-0.10024278 -0.096568435 0.70200002
-0.097179733 -0.097987972 0.70300001
-0.094616711 -0.096705996 0.70300001
-0.040831953 -0.098769255 0.704
-0.038850997 -0.098628953 0.70300001
-0.033129189 -0.096843556 0.704
-0.031159177 -0.096705996 0.70300001
-0.029194634 -0.096568435 0.70200002
-0.017698489 -0.096705996 0.70300001
-0.090770788 -0.094783045 0.70300001
-0.031159177 -0.094783045 0.70300001
-0.029194634 -0.094648227 0.70200002
-0.011912653 -0.094648227 0.70200002
-0.12346103 -0.092860088 0.70300001
-0.11944497 -0.092728004 0.70200002
-0.094482124 -0.092728004 0.70200002
-0.091666341 -0.092794046 0.70249999
-0.085001931 -0.09093713 0.70300001
-0.083078973 -0.09093713 0.70300001
-0.021559723 -0.091963291 0.70350003
-0.010006668 -0.092860088 0.70300001
-0.0042378022 -0.09093713 0.70300001
-0.12171096 -0.089140803 0.704
-0.11785958 -0.088177949 0.704
-0.11560454 -0.088887565 0.70200002
-0.084881015 -0.088887565 0.70200002
-0.083197154 -0.089140803 0.704
-0.07934577 -0.087215103 0.704
-0.016748231 -0.089077488 0.70350003
-0.01385258 -0.088051334 0.70300001
-0.0042317738 -0.088887565 0.70200002
-0.002311554 -0.088887565 0.70200002
0.0053769751 -0.087091222 0.70300001
0.0073103141 -0.087215103 0.704
-0.11560454 -0.086967342 0.70200002
-0.1119233 -0.085168272 0.70300001
-0.10896064 -0.085107699 0.70249999
-0.10600343 -0.085047118 0.70200002
-0.10408322 -0.085047118 0.70200002
-0.081040576 -0.08600723 0.70200002
-0.079233058 -0.085168272 0.70300001
-0.077420078 -0.085289419 0.704
-0.007117853 -0.085107699 0.70249999
0.0072999303 -0.085168272 0.70300001
0.0092228856 -0.085168272 0.70300001
-0.1120825 -0.083363719 0.704
-0.10903887 -0.083245307 0.70300001
-0.10600343 -0.083126895 0.70200002
-0.096402332 -0.081206679 0.70200002
-0.073359698 -0.083126895 0.70200002
-0.071541235 -0.082285196 0.70300001
-0.0061607575 -0.083245307 0.70300001
-0.0042317738 -0.083126895 0.70200002
0.0015332418 -0.081438035 0.704
0.0034491061 -0.081206679 0.70200002
0.011161695 -0.081438035 0.704
-0.10408322 -0.079286464 0.70200002
-0.069519259 -0.079286464 0.70200002
0.0015332418 -0.079512343 0.704
0.01114584 -0.079399399 0.70300001
-0.10792366 -0.075446017 0.70200002
-0.10319724 -0.077421337 0.70249999
-0.069618285 -0.077476442 0.70300001
-0.067599036 -0.075446017 0.70200002
-0.065772377 -0.075553492 0.70300001
-0.10807739 -0.073630534 0.70300001
-0.091666341 -0.073578164 0.70249999
-0.088847838 -0.073630534 0.70300001
-0.085841127 -0.073525801 0.70200002
-0.069618285 -0.073630534 0.70300001
-0.067695327 -0.073630534 0.70300001
-0.065678813 -0.073525801 0.70200002
-0.1119233 -0.070746101 0.70300001
-0.10984388 -0.070645466 0.70200002
-0.091667712 -0.070695102 0.70249999
-0.088721462 -0.071605578 0.70200002
-0.082176581 -0.069834255 0.70350003
-0.079120353 -0.069685355 0.70200002
-0.077420078 -0.06988389 0.704
-0.065772377 -0.069784619 0.70300001
-0.1159339 -0.067958198 0.704
-0.091798194 -0.066947088 0.70350003
-0.087948188 -0.067909934 0.70350003
-0.085001931 -0.067861669 0.70300001
-0.082118869 -0.067861669 0.70300001
-0.079120353 -0.067765139 0.70200002
-0.076633371 -0.0671876 0.7026667
-0.065865934 -0.067958198 0.704
-0.092693746 -0.064015761 0.70300001
-0.076402247 -0.064061292 0.70350003
-0.073359698 -0.064884812 0.70200002
-0.1117641 -0.062004477 0.70200002
-0.11000035 -0.060169846 0.70300001
-0.094616711 -0.061131321 0.70300001
-0.10600343 -0.058164041 0.70200002
-0.096539654 -0.058246892 0.70300001
-0.10216299 -0.056243815 0.70200002
-0.096402332 -0.056243815 0.70200002
-0.040773954 -0.048632115 0.70300001
-0.027352119 -0.050626986 0.704
-0.025426427 -0.04870129 0.704
-0.040831953 -0.046775602 0.704
-0.038850997 -0.046709161 0.70300001
-0.033129189 -0.046775602 0.704
-0.031203501 -0.046775602 0.704
-0.029277809 -0.046775602 0.704
-0.042757642 -0.042924222 0.704
-0.040715955 -0.044722501 0.70200002
-0.036928043 -0.04286325 0.70300001
-0.034092035 -0.042924222 0.704
-0.031203501 -0.042924222 0.704
-0.028273378 -0.044786207 0.70300001
-0.044683333 -0.04099853 0.704
-0.029277809 -0.040035684 0.704
-0.11015682 -0.037147149 0.704
-0.046609025 -0.037147149 0.704
-0.031114856 -0.038961839 0.70200002
-0.029277809 -0.037147149 0.704
-0.15059632 -0.033295766 0.704
-0.14248762 -0.033201177 0.70200002
-0.12171096 -0.033295766 0.704
-0.11752475 -0.0351214 0.70200002
-0.10807739 -0.035171427 0.70300001
-0.10423148 -0.033248473 0.70300001
-0.048396833 -0.033201177 0.70200002
-0.046609025 -0.035221457 0.704
-0.036928043 -0.035171427 0.70300001
-0.034348413 -0.033874605 0.7026667
-0.031159177 -0.034209952 0.70300001
-0.1426906 -0.031325515 0.70300001
-0.1213652 -0.031280957 0.70200002
-0.048465773 -0.031325515 0.70300001
-0.037915785 -0.031347796 0.70350003
-0.1544477 -0.029444385 0.704
-0.13692172 -0.028441083 0.70300001
-0.12538399 -0.028441083 0.70300001
-0.10052837 -0.028481539 0.704
-0.048396833 -0.027440516 0.70200002
-0.040715955 -0.027440516 0.70200002
-0.037943415 -0.027518693 0.704
-0.034042239 -0.029402561 0.70300001
-0.13133942 -0.025593005 0.704
-0.12730694 -0.025556652 0.70300001
-0.10024278 -0.025520299 0.70200002
-0.031114856 -0.025520299 0.70200002
-0.028274745 -0.025556652 0.70300001
-0.025426427 -0.025593005 0.704
-0.13037658 -0.023667313 0.704
-0.12748803 -0.023667313 0.704
-0.10423148 -0.023633694 0.70300001
-0.050317056 -0.023600077 0.70200002
-0.036875516 -0.023600077 0.70200002
-0.031114856 -0.023600077 0.70200002
-0.02825395 -0.023616886 0.70249999
-0.015753094 -0.021679858 0.70200002
-0.01385258 -0.02171074 0.70300001
-0.011946592 -0.021741623 0.704
-0.10600343 -0.019759636 0.70200002
-0.025354194 -0.019759636 0.70200002
-0.023433976 -0.019759636 0.70200002
-0.015753094 -0.019759636 0.70200002
-0.013832875 -0.019759636 0.70200002
-0.15592916 -0.015919197 0.70200002
-0.10437975 -0.017890241 0.704
-0.040715955 -0.015919197 0.70200002
-0.013832875 -0.015919197 0.70200002
-0.011929623 -0.017864829 0.70300001
-0.1563734 -0.01403886 0.704
-0.15134525 -0.012095964 0.70300001
-0.1117641 -0.012078757 0.70200002
-0.10911573 -0.013067411 0.70350003
-0.054234639 -0.012095964 0.70300001
-0.052237276 -0.012078757 0.70200002
-0.042636175 -0.012078757 0.70200002
-0.040773954 -0.012095964 0.70300001
-0.033082131 -0.012095964 0.70300001
-0.031159177 -0.012095964 0.70300001
-0.029194634 -0.012078757 0.70200002
-0.01385258 -0.012095964 0.70300001
-0.15059632 -0.010187479 0.704
-0.10711455 -0.010173008 0.70300001
-0.037835628 -0.010158537 0.70200002
-0.033995181 -0.010158537 0.70200002
-0.031114856 -0.010158537 0.70200002
-0.013832875 -0.010158537 0.70200002
-0.14056739 -0.0082383174 0.70200002
-0.10703905 -0.0082441848 0.70249999
-0.10216299 -0.0063180975 0.70200002
-0.056237482 -0.0063360976 0.704
-0.042696908 -0.0082500521 0.70300001
-0.040831953 -0.0082617877 0.704
-0.038795736 -0.0063180975 0.70200002
-0.027352119 -0.0072989427 0.704
-0.025372252 -0.007284075 0.70249999
-0.022805028 -0.0069611706 0.70233327
-0.015786756 -0.0072930749 0.70350003
-0.1351908 -0.0044104066 0.704
-0.10038558 -0.004404142 0.70300001
-0.056237482 -0.0044104066 0.704
-0.040715955 -0.004397877 0.70200002
-0.13394263 -0.0024794214 0.70249999
-0.1292299 -0.00055823097 0.70300001
-0.096402332 -0.0024776568 0.70200002
-0.05816317 -0.0024847158 0.704
-0.042636175 -0.0005574369 0.70200002
-0.12730694 0.0013647244 0.70300001
-0.12363665 0.0032923562 0.704
-0.12153809 0.004250525 0.70300001
-0.11944497 0.0052032233 0.70200002
-0.10052837 0.0052180472 0.704
-0.054234639 0.0032876795 0.70300001
-0.052237276 0.0032830031 0.70200002
-0.048396833 0.0052032233 0.70200002
-0.046476614 0.0052032233 0.70200002
-0.043626651 0.0042454517 0.70249999
-0.11752475 0.0071234433 0.70200002
-0.10230853 0.0071335905 0.70300001
-0.11497104 0.010032274 0.704
-0.11368432 0.0090436628 0.70200002
-0.10408322 0.010963883 0.70200002
-0.10911711 0.014835956 0.70350003
-0.10615443 0.012902456 0.70300001
-0.069618285 0.014825412 0.70300001
-0.077200137 0.016724544 0.70200002
-0.088974223 0.018697882 0.704
-0.075279914 0.030166086 0.70200002
-0.063940242 0.041806169 0.704
-0.096539654 0.045592699 0.70300001
-0.094751298 0.045657553 0.704
-0.052237276 0.053208727 0.70200002
-0.071439475 0.057049163 0.70200002
-0.087048531 0.062988766 0.704
-0.046609025 0.062988766 0.704
-0.060088858 0.068765841 0.704
-0.010063605 -0.1223969 0.70700002
-0.0071482463 -0.12213721 0.70550001
-0.0042619146 -0.1223969 0.70700002
-0.0013594232 -0.12231034 0.70649999
-0.01101495 -0.11836145 0.70599997
-0.0081297085 -0.11852911 0.70700002
-0.00039356371 -0.11836145 0.70599997
0.0015397756 -0.11852911 0.70700002
-0.01004937 -0.11449913 0.70599997
-0.0071468791 -0.11441804 0.70550001
-0.0042558862 -0.11449913 0.70599997
-0.002328018 -0.11466132 0.70700002
-0.03713816 -0.11272742 0.70700002
-0.0042619146 -0.11272742 0.70700002
-0.11433208 -0.10870565 0.70599997
-0.11256013 -0.10885963 0.70700002
-0.039016791 -0.10967124 0.70599997
-0.0370331 -0.10855167 0.70499998
-0.033882715 -0.1094007 0.70633334
-0.013931399 -0.11079353 0.70700002
-0.011997501 -0.11079353 0.70700002
-0.0074850763 -0.1101489 0.70700002
-0.0042558862 -0.11063682 0.70599997
-0.002328018 -0.11079353 0.70700002
-0.10838486 -0.10662325 0.70499998
-0.031247823 -0.10662325 0.70499998
-0.028395403 -0.10677448 0.70599997
-0.025534779 -0.10692573 0.70700002
-0.013931399 -0.10692573 0.70700002
-0.01004937 -0.10677448 0.70599997
-0.0071424972 -0.10662325 0.70499998
-0.12109115 -0.10387775 0.70599997
-0.10095676 -0.10305794 0.70700002
-0.031247823 -0.10469483 0.70499998
-0.028414831 -0.10491759 0.70649999
-0.025534779 -0.10499184 0.70700002
-0.021605693 -0.10276639 0.70499998
-0.019705176 -0.10291217 0.70599997
-0.016819656 -0.10298505 0.70649999
-0.013931399 -0.10305794 0.70700002
-0.010697835 -0.10360539 0.70633334
-0.007159885 -0.10398844 0.70674998
-0.10081396 -0.100981 0.70599997
-0.095020473 -0.099049844 0.70599997
-0.042818379 -0.10083797 0.70499998
-0.022585228 -0.10090949 0.70550001
-0.01973309 -0.10112403 0.70700002
-0.016821023 -0.10008694 0.70649999
-0.013931399 -0.099190146 0.70700002
-0.011997501 -0.099190146 0.70700002
-0.12381227 -0.098909549 0.70499998
-0.093089305 -0.097118676 0.70599997
-0.042818379 -0.098909549 0.70499998
-0.035104673 -0.096981116 0.70499998
-0.016784627 -0.097945333 0.70499998
-0.013911693 -0.097118676 0.70599997
-0.12609741 -0.093388453 0.70700002
-0.088666618 -0.093989052 0.70666665
-0.034188889 -0.095187522 0.70599997
-0.028435625 -0.093388453 0.70700002
-0.025462544 -0.09312427 0.70499998
-0.023534119 -0.09312427 0.70499998
-0.01004937 -0.095187522 0.70599997
-0.0081239585 -0.094289362 0.70649999
-0.12574069 -0.091195837 0.70499998
-0.031336471 -0.091454558 0.70700002
-0.028416198 -0.09138988 0.70649999
-0.02549866 -0.091325194 0.70599997
-0.023534119 -0.091195837 0.70499998
-0.001357498 -0.091260515 0.70550001
0.0015397756 -0.091454558 0.70700002
0.0073310821 -0.091325194 0.70599997
0.0092753628 -0.091454558 0.70700002
-0.12381227 -0.089267418 0.70499998
-0.12188385 -0.087338991 0.70499998
-0.11995542 -0.088303208 0.70499998
-0.077640019 -0.087462872 0.70599997
-0.019691221 -0.088365145 0.70550001
-0.016784627 -0.087338991 0.70499998
-0.00039300625 -0.089267418 0.70499998
0.0015397756 -0.089520663 0.70700002
0.010221263 -0.087400928 0.70550001
-0.11529904 -0.085531712 0.70599997
-0.010035137 -0.085410565 0.70499998
0.01120926 -0.085652865 0.70700002
-0.11538 -0.083659761 0.70649999
-0.10675844 -0.081785075 0.70700002
-0.10452801 -0.081553712 0.70499998
-0.07001441 -0.081785075 0.70700002
-0.010063605 -0.08371897 0.70700002
-0.0081067104 -0.083482139 0.70499998
-0.0013572193 -0.081553712 0.70499998
0.013124566 -0.083600551 0.70599997
-0.10958242 -0.079794705 0.70649999
-0.10645643 -0.079625286 0.70499998
-0.067887917 -0.079625286 0.70499998
-0.0013605121 -0.07973823 0.70599997
-0.10958105 -0.076896593 0.70649999
-0.10645643 -0.07769686 0.70499998
-0.067984208 -0.077807061 0.70599997
-0.064031065 -0.075768434 0.70499998
0.0073310821 -0.076841481 0.70599997
0.0092688035 -0.076895222 0.70649999
-0.11433208 -0.072013587 0.70599997
-0.11046976 -0.073944747 0.70599997
-0.064031065 -0.073840007 0.70499998
-0.11433208 -0.070082419 0.70599997
-0.091029026 -0.069983155 0.70499998
-0.08813639 -0.069983155 0.70499998
-0.085243754 -0.069983155 0.70499998
-0.064031065 -0.071911581 0.70499998
-0.11609857 -0.066126302 0.70499998
-0.091158144 -0.066220097 0.70599997
-0.085485585 -0.0663139 0.70700002
-0.082527012 -0.066266999 0.70649999
-0.07957118 -0.066220097 0.70599997
-0.075601615 -0.066126302 0.70499998
-0.067887917 -0.066126302 0.70499998
-0.11626325 -0.064288937 0.70599997
-0.091029026 -0.064197883 0.70499998
-0.081617787 -0.064380005 0.70700002
-0.07957118 -0.064288937 0.70599997
-0.093221165 -0.062446102 0.70700002
-0.0738822 -0.062446102 0.70700002
-0.071846537 -0.062357776 0.70599997
-0.10869234 -0.058578312 0.70700002
-0.095020473 -0.058495454 0.70599997
-0.10452801 -0.05648417 0.70499998
-0.099022858 -0.054710519 0.70700002
-0.097088963 -0.054710519 0.70700002
-0.095155068 -0.056644414 0.70700002
-0.039072055 -0.050842728 0.70700002
-0.03708563 -0.050770812 0.70599997
-0.034163989 -0.050734855 0.70550001
-0.042939849 -0.046974931 0.70700002
-0.0370331 -0.046842042 0.70499998
-0.035104673 -0.046842042 0.70499998
-0.027390972 -0.046842042 0.70499998
-0.025534779 -0.046007983 0.70700002
-0.042818379 -0.04491362 0.70499998
-0.029319396 -0.042985193 0.70499998
-0.1181944 -0.03918384 0.70599997
-0.1152963 -0.03918384 0.70599997
-0.044746805 -0.039128341 0.70499998
-0.027468678 -0.041173238 0.70700002
-0.11995542 -0.037199914 0.70499998
-0.14598918 -0.035271488 0.70499998
-0.1411681 -0.033343062 0.70499998
-0.13963468 -0.033437654 0.70700002
-0.11995542 -0.035271488 0.70499998
-0.029340189 -0.03433229 0.70550001
-0.15273866 -0.031414635 0.70499998
-0.1411681 -0.031414635 0.70499998
-0.13963468 -0.031503756 0.70700002
-0.12381227 -0.031414635 0.70499998
-0.10289065 -0.031503756 0.70700002
-0.03414046 -0.031414635 0.70499998
-0.031336471 -0.031503756 0.70700002
-0.13538283 -0.028521996 0.70499998
-0.13383299 -0.027635962 0.70700002
-0.1280313 -0.027635962 0.70700002
-0.050532084 -0.028521996 0.70499998
-0.034163989 -0.027577326 0.70550001
-0.031247823 -0.029486209 0.70499998
-0.029402573 -0.029569861 0.70700002
-0.12959754 -0.025629358 0.70499998
-0.098742731 -0.025629358 0.70499998
-0.023567501 -0.025665712 0.70599997
-0.10267235 -0.022752158 0.70550001
-0.025462544 -0.02370093 0.70499998
-0.022617243 -0.023751359 0.70649999
-0.01973309 -0.023768168 0.70700002
-0.10452801 -0.019844079 0.70499998
-0.011963561 -0.019844079 0.70499998
-0.16045237 -0.017915653 0.70499998
-0.15852395 -0.015987227 0.70499998
-0.10645643 -0.015987227 0.70499998
-0.1085386 -0.012147581 0.70599997
-0.076729424 -0.014088714 0.70649999
-0.073777691 -0.014078743 0.70599997
-0.070981354 -0.014098685 0.70700002
-0.037997313 -0.012130376 0.70499998
-0.035104673 -0.012130376 0.70499998
-0.011980531 -0.014078743 0.70599997
-0.10467628 -0.01021642 0.70599997
-0.056317363 -0.010201949 0.70499998
-0.14223245 -0.0073138103 0.70550001
-0.10378346 -0.0082911272 0.70649999
-0.10067116 -0.0063450974 0.70499998
-0.098882794 -0.0063540973 0.70599997
-0.085485585 -0.006363098 0.70700002
-0.056477129 -0.0082969945 0.70700002
-0.037693419 -0.0076346262 0.70533329
-0.035204265 -0.0082969945 0.70700002
-0.031336471 -0.0082969945 0.70700002
-0.029340189 -0.0073151784 0.70550001
-0.098742731 -0.0044166711 0.70499998
-0.038961526 -0.0044166711 0.70499998
-0.02549866 -0.0044229361 0.70599997
-0.022586597 -0.0044198036 0.70550001
-0.019677266 -0.0044166711 0.70499998
-0.017799193 -0.0044292011 0.70700002
-0.13171254 -0.00056061317 0.70599997
-0.096814305 -0.00055981911 0.70499998
-0.095155068 -0.002495304 0.70700002
-0.040889952 -0.00055981911 0.70499998
-0.038961526 -0.002488245 0.70499998
-0.021636339 -0.0024917745 0.70599997
-0.019705176 -0.0024917745 0.70599997
-0.12959754 0.0013686068 0.70499998
-0.096951626 0.0013705482 0.70599997
-0.040889952 0.0013686068 0.70499998
-0.098882794 0.0033017094 0.70599997
-0.056397244 0.0033017094 0.70599997
-0.042818379 0.0052254591 0.70499998
-0.11995542 0.007153885 0.70499998
-0.048741538 0.0071741799 0.70700002
-0.046741433 0.0071640322 0.70599997
-0.044873748 0.0071741799 0.70700002
-0.1181944 0.0090951929 0.70599997
-0.11642794 0.011041974 0.70700002
-0.10289065 0.0091080768 0.70700002
-0.048603654 0.011010737 0.70499998
-0.11240092 0.013924465 0.70599997
-0.048672594 0.012957516 0.70599997
-0.089226991 0.020682162 0.70599997
-0.060174212 0.01872444 0.70499998
-0.048741538 0.020711457 0.70700002
-0.10095676 0.022645354 0.70700002
-0.089353375 0.022645354 0.70700002
-0.10095676 0.025546199 0.70700002
-0.098882794 0.026475644 0.70599997
-0.08741948 0.030380944 0.70700002
-0.052534919 0.030337969 0.70599997
-0.085485585 0.03811653 0.70700002
-0.082584739 0.03811653 0.70700002
-0.10081396 0.041924935 0.70599997
-0.097778514 0.041865554 0.70499998
-0.083433501 0.041924935 0.70599997
-0.054388933 0.041865554 0.70499998
-0.052534919 0.041924935 0.70599997
-0.097848549 0.043825038 0.70550001
-0.10081396 0.04578726 0.70599997
-0.097915843 0.046754211 0.70599997
-0.094122186 0.046786636 0.70649999
-0.065959491 0.049579255 0.70499998
-0.088324599 0.053549804 0.70649999
-0.085364662 0.053511906 0.70599997
-0.069816343 0.053436112 0.70499998
-0.060259566 0.053511906 0.70599997
-0.10067116 0.061149813 0.70499998
-0.091158144 0.061236549 0.70599997
-0.089100607 0.061149813 0.70499998
-0.088584185 0.064455152 0.70600003
-0.085243754 0.065006666 0.70499998
-0.064121887 0.068961196 0.70599997
-0.0738822 0.06905888 0.70700002
-0.071948305 0.06905888 0.70700002
-0.21208499 -0.17923725 0.70999998
-0.0081642047 -0.12680048 0.70999998
-0.010092073 -0.12468251 0.70899999
-0.0071728909 -0.12450666 0.708
-0.012039924 -0.12185865 0.70949996
-0.010092073 -0.12080378 0.70899999
-0.0071830219 -0.12080378 0.70899999
-0.0042799991 -0.12097416 0.70999998
-0.0013629948 -0.12063339 0.708
0.0015452203 -0.12186002 0.70949996
-0.0062045748 -0.11869676 0.708
-0.0042679431 -0.11869676 0.708
-0.0016883336 -0.11762556 0.70933336
0.0034834989 -0.11886441 0.70899999
-0.037190691 -0.1148235 0.708
-0.03530385 -0.11498567 0.70899999
-0.012678809 -0.11563214 0.70900005
-0.01007784 -0.11676013 0.708
-0.0071772723 -0.11684259 0.70850003
-0.0042739711 -0.11692505 0.70899999
-0.00039467865 -0.1148235 0.708
0.0015463092 -0.11514785 0.70999998
-0.11481792 -0.11110695 0.70899999
-0.11303775 -0.11126366 0.70999998
-0.039237849 -0.11320575 0.70999998
-0.035254057 -0.11288686 0.708
-0.028516065 -0.11110695 0.70899999
-0.012048409 -0.11320575 0.70999998
-0.010092073 -0.1130463 0.70899999
-0.0071728909 -0.11288686 0.708
-0.0013635522 -0.1130463 0.70899999
-0.11659261 -0.1090136 0.708
-0.11093918 -0.10916758 0.70899999
-0.041179951 -0.10932154 0.70999998
-0.031402953 -0.1100589 0.70850003
-0.028536858 -0.10924456 0.70949996
-0.025643129 -0.10932154 0.70999998
-0.013001124 -0.10916758 0.70899999
-0.01007784 -0.10998192 0.708
-0.0062045748 -0.1090136 0.708
-0.0042739711 -0.10916758 0.70899999
-0.0013662875 -0.11013589 0.70899999
-0.12080617 -0.10737944 0.70999998
-0.10690944 -0.10707697 0.708
-0.10415003 -0.10528884 0.70899999
-0.043000586 -0.10514034 0.708
-0.023020277 -0.1059353 0.70900005
-0.019816821 -0.10640839 0.70999998
-0.016881227 -0.10625852 0.70899999
-0.012672241 -0.10588488 0.70866662
-0.0042739711 -0.1072282 0.70899999
-0.0042799991 -0.10349523 0.70999998
-0.099162921 -0.10126707 0.708
-0.093484871 -0.099470735 0.70899999
-0.045000687 -0.099470735 0.70899999
-0.015910177 -0.1014101 0.70899999
-0.013001124 -0.1014101 0.70899999
-0.010084957 -0.10037027 0.70850003
-0.0071801473 -0.10040602 0.70874995
-0.0042679431 -0.09933044 0.708
-0.0023378963 -0.099611036 0.70999998
-0.091674618 -0.097668923 0.70999998
-0.043000586 -0.097393803 0.708
-0.040095635 -0.097393803 0.708
-0.037190691 -0.097393803 0.708
-0.012014471 -0.097393803 0.708
-0.010106307 -0.097668923 0.70999998
-0.12627576 -0.095457181 0.708
-0.085848317 -0.093784727 0.70999998
-0.04306132 -0.095592007 0.70899999
-0.040152267 -0.095592007 0.70899999
-0.037243217 -0.095592007 0.70899999
-0.03341154 -0.093784727 0.70999998
-0.031380791 -0.093520544 0.708
-0.0062089562 -0.094554909 0.70850003
-0.0042739711 -0.094620958 0.70899999
-0.0013651985 -0.09565942 0.70949996
0.0015463092 -0.093784727 0.70999998
0.0054305149 -0.093784727 0.70999998
0.0073726177 -0.093784727 0.70999998
0.0093147205 -0.093784727 0.70999998
-0.081848666 -0.091713265 0.70899999
-0.03341154 -0.091842614 0.70999998
0.0044469018 -0.091583908 0.708
0.011225115 -0.091583908 0.708
0.013180336 -0.091713265 0.70899999
-0.12645411 -0.089773901 0.70899999
-0.12433913 -0.087710649 0.708
-0.081848666 -0.089773901 0.70899999
-0.080022007 -0.089900523 0.70999998
-0.076137796 -0.087958418 0.70999998
-0.022714652 -0.088866845 0.70949996
0.0044531827 -0.089773901 0.70899999
0.0073518502 -0.089647286 0.708
0.010272653 -0.089773908 0.70899999
0.013180336 -0.088805586 0.70899999
