# .PCD v0.7 - Point Cloud Data file format
VERSION 0.7
FIELDS x y z
SIZE 4 4 4
TYPE F F F
COUNT 1 1 1
WIDTH 1339
HEIGHT 1
VIEWPOINT 0 0 0 1 0 0 0
POINTS 1339
DATA ascii
-0.060781304 -0.032633636 0.69
-0.068330891 -0.028858844 0.69
-0.075880475 -0.025084052 0.69
-0.073049381 -0.02602775 0.69
-0.085564747 -0.021371026 0.69199997
-0.028778754 -0.021371026 0.69199997
-0.12306537 -0.015647074 0.69
-0.096921943 -0.017585292 0.69199997
-0.034457352 -0.010013828 0.69199997
-0.038243085 -0.0062280954 0.69199997
-0.0079572247 -0.0024423625 0.69199997
-0.077880576 0.014572346 0.69099998
-0.047638476 0.014572346 0.69099998
-0.072210178 0.018352607 0.69099998
-0.070370927 0.019310953 0.69149995
-0.21207988 0.02591313 0.69099998
-0.083671883 0.025950631 0.69199997
-0.062759526 0.029693395 0.69099998
-0.21427965 0.031629231 0.69199997
-0.060781304 0.040974796 0.69
-0.067486227 0.048594706 0.69099998
-0.064649656 0.050484832 0.69099998
-0.067534372 0.052412868 0.69149995
-0.072210178 0.058045357 0.69099998
-0.019370247 -0.087874599 0.69400001
-0.028861931 -0.082179584 0.69400001
-0.023133541 -0.083956771 0.69300002
-0.036507811 -0.078495853 0.69499999
-0.03076027 -0.080281243 0.69400001
-0.038298354 -0.076374359 0.69300002
-0.0098643266 -0.07447876 0.69300002
-0.057254374 -0.066896357 0.69300002
-0.066828676 -0.061297871 0.69400001
-0.070523582 -0.05552274 0.69300002
-0.070676237 -0.052794047 0.69449997
-0.021299228 -0.051880836 0.69499999
-0.021268582 -0.049907852 0.69400001
-0.076430336 -0.046177618 0.69499999
-0.073578715 -0.046177618 0.69499999
-0.070523582 -0.046992533 0.69300002
-0.019398157 -0.046177618 0.69499999
-0.091638908 -0.042375471 0.69499999
-0.088596359 -0.042284019 0.69350004
-0.085812047 -0.04421284 0.69400001
-0.082845002 -0.044149134 0.69300002
-0.037376817 -0.043231819 0.69350004
-0.031685907 -0.042284019 0.69350004
-0.028903518 -0.042375471 0.69499999
-0.026014425 -0.042314503 0.69400001
-0.023200301 -0.042375471 0.69499999
-0.019370247 -0.04421284 0.69400001
-0.10114427 -0.0404744 0.69499999
-0.098957613 -0.040357929 0.69300002
-0.036507811 -0.0404744 0.69499999
-0.034507148 -0.040357929 0.69300002
-0.031685907 -0.040387046 0.69350004
-0.028861931 -0.040416162 0.69400001
-0.025996368 -0.040387046 0.69350004
-0.022233075 -0.040445283 0.69449997
-0.019398157 -0.0404744 0.69499999
-0.11428711 -0.036619488 0.69400001
-0.10289709 -0.038517829 0.69400001
-0.10085321 -0.038462326 0.69300002
-0.051641978 -0.038517829 0.69400001
-0.11635285 -0.034771185 0.69499999
-0.059320677 -0.034771185 0.69499999
-0.12567711 -0.031875014 0.69400001
-0.06402795 -0.030946758 0.69449997
-0.061221749 -0.030969037 0.69499999
-0.059320677 -0.03287011 0.69499999
-0.12757546 -0.029026141 0.69400001
-0.070523582 -0.027088715 0.69300002
-0.066732377 -0.028984318 0.69300002
-0.064026579 -0.029047053 0.69449997
-0.061221749 -0.029067965 0.69499999
-0.072419189 -0.025193114 0.69300002
-0.027002446 -0.02526582 0.69499999
-0.025101373 -0.02526582 0.69499999
-0.023166921 -0.025229467 0.69400001
-0.083792798 -0.02140191 0.69300002
-0.031710804 -0.021432793 0.69400001
-0.026013058 -0.021432793 0.69400001
-0.12549603 -0.019506309 0.69300002
-0.12567712 -0.017636118 0.69400001
-0.030804591 -0.017661531 0.69499999
-0.028903518 -0.017661531 0.69499999
-0.12360044 -0.013819504 0.69300002
-0.11033122 -0.013819504 0.69300002
-0.034556944 -0.013839445 0.69400001
-0.031685907 -0.013829474 0.69350004
-0.12170483 -0.011923902 0.69300002
-0.037350554 -0.010028299 0.69300002
-0.034606736 -0.011958314 0.69499999
-0.032682132 -0.011000542 0.69449997
-0.019398157 -0.010057241 0.69499999
-0.017497085 -0.010057241 0.69499999
-0.040309954 -0.0062550963 0.69499999
-0.036402754 -0.0062370962 0.69300002
-0.034556944 -0.006246096 0.69400001
-0.016524108 -0.0062460965 0.69400001
-0.013675235 -0.006246096 0.69400001
-0.011776896 -0.006246096 0.69400001
-0.0079917209 -0.0062550963 0.69499999
-0.038408879 -0.0043540234 0.69499999
-0.015596012 -0.0043540234 0.69499999
-0.011793866 -0.0043540234 0.69499999
-0.037404448 -0.0024494214 0.69400001
-0.034606736 -0.0024529509 0.69499999
-0.010829097 -0.0024494217 0.69400001
-0.0060818857 -0.0024494214 0.69400001
-0.040309954 0.001349194 0.69499999
-0.0060906489 0.001349194 0.69499999
-0.0041835485 0.0013472527 0.69400001
-0.074422024 0.010838939 0.69400001
-0.22975414 0.014614524 0.69300002
-0.05733699 0.018432287 0.69400001
-0.21489896 0.02222896 0.69400001
-0.0478453 0.02222896 0.69400001
-0.076210395 0.029779341 0.69300002
-0.21489896 0.033618987 0.69400001
-0.05733699 0.041212332 0.69400001
-0.22818734 0.04500901 0.69400001
-0.068627983 0.050630957 0.69300002
-0.059320677 0.048876006 0.69499999
-0.070727117 0.067886733 0.69499999
-0.017572612 -0.088381082 0.69800001
-0.015618452 -0.086224027 0.69599998
-0.013714644 -0.082416408 0.69599998
-0.038574677 -0.078834683 0.69800001
-0.040425956 -0.076815195 0.69700003
-0.046079375 -0.072897367 0.69599998
-0.052855693 -0.070193291 0.69749999
-0.008026218 -0.071197569 0.69800001
-0.06521102 -0.063469395 0.69700003
-0.070930652 -0.057749767 0.69700003
-0.00800322 -0.057666909 0.69599998
-0.01945398 -0.052030135 0.69700003
-0.015640894 -0.053936679 0.69700003
-0.076760247 -0.048286226 0.69800001
-0.073844075 -0.048251636 0.69749999
-0.070828877 -0.050051678 0.69599998
-0.019426066 -0.050051678 0.69599998
-0.017522259 -0.048147865 0.69599998
-0.078444108 -0.046244059 0.69599998
-0.094695143 -0.042466931 0.6965
-0.087963149 -0.044340253 0.69599998
-0.042332496 -0.044403963 0.69700003
-0.040483955 -0.044467669 0.69800001
-0.038574677 -0.042558391 0.69800001
-0.021329874 -0.042436443 0.69599998
-0.01948189 -0.042558391 0.69800001
-0.017572612 -0.044467669 0.69800001
-0.10349015 -0.040649112 0.69800001
-0.04621179 -0.040649112 0.69800001
-0.017572612 -0.040649112 0.69800001
-0.11668769 -0.036777787 0.69700003
-0.10620306 -0.038684331 0.69700003
-0.032210413 -0.037466981 0.69800001
-0.02802371 -0.037718553 0.69674999
-0.02513749 -0.037676923 0.69599998
-0.02264268 -0.037431803 0.69733334
-0.01945398 -0.036777787 0.69700003
-0.12067366 -0.034921277 0.69800001
-0.11859423 -0.034871247 0.69700003
-0.12831077 -0.031102717 0.69800001
-0.12831077 -0.02728416 0.69800001
-0.068925075 -0.027205981 0.69599998
-0.059576739 -0.02919344 0.69800001
-0.023300448 -0.02728416 0.69800001
-0.12794311 -0.025302174 0.69599998
-0.070930652 -0.025338531 0.69700003
-0.031847876 -0.025338529 0.69700003
-0.028945105 -0.025302174 0.69599998
-0.021360522 -0.025338531 0.69700003
-0.082251728 -0.021494558 0.69599998
-0.080463365 -0.022477346 0.69700003
-0.031847876 -0.023431985 0.69700003
-0.027993202 -0.023398366 0.69599998
-0.025173608 -0.023431985 0.69700003
-0.023250375 -0.022463271 0.6965
-0.092034474 -0.019647047 0.69800001
-0.089042813 -0.019618899 0.69700003
-0.030848915 -0.01959075 0.69599998
-0.028032055 -0.019618899 0.69700003
-0.10349015 -0.01582849 0.69800001
-0.10158087 -0.01582849 0.69800001
-0.094761066 -0.017712355 0.69700003
-0.032148581 -0.016432857 0.69666672
-0.027119005 -0.017737769 0.69800001
-0.11494582 -0.012009933 0.69800001
-0.10890504 -0.013879327 0.69599998
-0.10730871 -0.013919211 0.69800001
-0.036560338 -0.013879327 0.69599998
-0.028032055 -0.013899269 0.69700003
-0.12050078 -0.011992726 0.69700003
-0.11842407 -0.011975519 0.69599998
-0.11652026 -0.011975519 0.69599998
-0.040483955 -0.010100653 0.69800001
-0.036612868 -0.011992726 0.69700003
-0.030871078 -0.011032219 0.6965
-0.02229847 -0.010078947 0.6965
-0.015663333 -0.010100653 0.69800001
-0.013754055 -0.010100653 0.69800001
-0.042393234 -0.0062820967 0.69800001
-0.037512243 -0.0081679039 0.69599998
-0.034706324 -0.0081796395 0.69700003
-0.032194726 -0.0069155227 0.69766665
-0.021391168 -0.0072367359 0.69800001
-0.019440023 -0.0072218678 0.6965
-0.016581576 -0.0081737712 0.6965
-0.01373435 -0.0081796395 0.69700003
-0.0099070286 -0.0062640961 0.69599998
-0.0060994122 -0.0062640961 0.69599998
-0.0042016334 -0.0062730969 0.69700003
-0.0022983826 -0.0062820967 0.69800001
-0.040483955 -0.0043728179 0.69800001
-0.036560338 -0.0043602884 0.69599998
-0.034706324 -0.0043665534 0.69700003
-0.017572612 -0.0043728179 0.69800001
-0.013714644 -0.0043602884 0.69599998
-0.0099070286 -0.0043602884 0.69599998
-0.0070600798 -0.0043665534 0.69700003
-0.040425956 -0.0015053704 0.69700003
-0.036665399 -0.00055426062 0.69800001
-0.031892199 -0.0024635391 0.69800001
-0.016617972 -0.0024635391 0.69800001
-0.01373435 -0.0024600099 0.69700003
-0.009921263 -0.00055346655 0.69700003
-0.0070513161 -0.00055267249 0.69599998
-0.0041986192 -0.0015049734 0.6965
-0.0022983826 -0.0024635391 0.69800001
-0.04621179 0.0013550179 0.69800001
-0.043254033 0.001352106 0.6965
-0.037512243 0.0013511353 0.69599998
-0.034706324 0.0013530767 0.69700003
-0.032846838 0.0013550179 0.69800001
-0.0099354973 0.0013550179 0.69800001
-0.008014719 0.0013530767 0.69700003
-0.0022983826 0.0013550179 0.69800001
-0.043254033 0.0042098691 0.6965
-0.040454954 0.0042165974 0.69749999
-0.036665399 0.0032642963 0.69800001
-0.053694606 0.0070625586 0.69599998
-0.043270584 0.0080241244 0.69675004
-0.040483955 0.0080374926 0.69800001
-0.038574677 0.0089921318 0.69800001
-0.047983181 0.010870175 0.69599998
-0.042332496 0.010885794 0.69700003
-0.040367953 0.010870175 0.69599998
-0.038464144 0.010870175 0.69599998
-0.22917375 0.012792337 0.69700003
-0.21376793 0.028976467 0.6965
-0.22950254 0.033812754 0.69800001
-0.2231335 0.041331097 0.69599998
-0.080347918 0.041331097 0.69599998
-0.080463365 0.043297026 0.69700003
-0.2231335 0.045138717 0.69599998
-0.080347918 0.045138717 0.69599998
-0.063213646 0.048946328 0.69599998
-0.22933814 0.055728823 0.69749999
-0.22917375 0.068082094 0.69700003
-0.059491388 0.068082094 0.69700003
-0.043534182 -0.10218333 0.70099998
-0.037701566 -0.090484381 0.69949996
-0.034905497 -0.090678416 0.70099998
-0.036822986 -0.086843446 0.70099998
-0.025245842 -0.084683672 0.699
-0.030981885 -0.082771651 0.699
-0.032893896 -0.080859639 0.699
-0.057915315 -0.075338542 0.70099998
-0.044365983 -0.075123593 0.699
-0.048258949 -0.073316321 0.69999999
-0.059662092 -0.067475542 0.699
-0.006125703 -0.067475542 0.699
-0.061574105 -0.06556353 0.699
-0.07113418 -0.059827488 0.699
-0.0042197173 -0.059913076 0.69999999
-0.009963965 -0.056083575 0.69999999
-0.017622963 -0.052254081 0.69999999
-0.078894936 -0.048424579 0.69999999
-0.016653001 -0.049346 0.69949996
-0.080694243 -0.046443388 0.699
-0.017597787 -0.046443388 0.699
-0.098182492 -0.042741302 0.70099998
-0.091342174 -0.044595081 0.69999999
-0.10585243 -0.040823817 0.70099998
-0.038629938 -0.040707346 0.699
-0.015730653 -0.040823817 0.70099998
-0.11927482 -0.036988851 0.70099998
-0.10937446 -0.038795333 0.699
-0.053926051 -0.036883317 0.699
-0.0501737 -0.038850833 0.69999999
-0.034880601 -0.037919842 0.70050001
-0.030981885 -0.038795333 0.699
-0.021421814 -0.038795333 0.699
-0.019509802 -0.038795333 0.699
-0.01763555 -0.037921213 0.70050001
-0.12867841 -0.033106584 0.69999999
-0.12310979 -0.035071366 0.70099998
-0.057832696 -0.035021335 0.69999999
-0.028174875 -0.034088291 0.70049995
-0.025300017 -0.034088977 0.70050001
-0.022441849 -0.03315388 0.70099998
-0.019537712 -0.033106584 0.69999999
-0.016653001 -0.03308294 0.69949996
-0.013813169 -0.03315388 0.70099998
-0.059832796 -0.031236395 0.70099998
-0.067310147 -0.027323248 0.699
-0.065585248 -0.027401425 0.70099998
-0.027196709 -0.028319713 0.69999999
-0.025245842 -0.028279256 0.699
-0.0220898 -0.028637925 0.69999999
-0.019537712 -0.029277088 0.69999999
-0.016641781 -0.029235264 0.699
-0.013813169 -0.029318912 0.70099998
-0.069321193 -0.02544759 0.69999999
-0.019509802 -0.025411237 0.699
-0.016678177 -0.025465768 0.70050001
-0.12877032 -0.022590905 0.70050001
-0.078782231 -0.023499221 0.699
-0.076076433 -0.023549648 0.70050001
-0.034855705 -0.021618091 0.69999999
-0.02145246 -0.022576831 0.69999999
-0.019565621 -0.021648973 0.70099998
-0.086430289 -0.019675193 0.699
-0.032893896 -0.019675193 0.699
-0.025245842 -0.019675193 0.699
-0.023367211 -0.019703342 0.69999999
-0.099957183 -0.015873842 0.69999999
-0.091276243 -0.017775886 0.69949996
-0.088468686 -0.017788593 0.69999999
-0.036822986 -0.017814003 0.70099998
-0.034830809 -0.016818512 0.69949996
-0.029069869 -0.015851166 0.699
-0.025245842 -0.017763181 0.699
-0.022408467 -0.017788593 0.69999999
-0.11336043 -0.012044345 0.69999999
-0.10585243 -0.013979035 0.70099998
-0.038629938 -0.012983145 0.699
-0.028133288 -0.012035742 0.69949996
-0.025281958 -0.013000351 0.69999999
-0.022418182 -0.013006021 0.70025003
-0.019523757 -0.012991749 0.69949996
-0.016983801 -0.013320845 0.69999999
-0.013813169 -0.013979035 0.70099998
-0.11927482 -0.010144065 0.70099998
-0.0425147 -0.010129595 0.69999999
-0.028113862 -0.010115124 0.699
-0.025245842 -0.010115124 0.699
-0.010914223 -0.01012236 0.69949996
-0.0070918407 -0.010129595 0.69999999
-0.0042257453 -0.010144065 0.70099998
-0.043502443 -0.0072633391 0.70050001
-0.040541954 -0.0082031107 0.699
-0.031026207 -0.0082148463 0.69999999
-0.028174877 -0.0063045966 0.70050001
-0.025318075 -0.0063090967 0.70099998
-0.02335052 -0.0072529716 0.69949996
-0.010912854 -0.0082089789 0.69949996
-0.0070918407 -0.0082148463 0.69999999
-0.0042257453 -0.0082265809 0.70099998
-0.00039021898 -0.0063000969 0.69999999
-0.042575438 -0.004391612 0.70099998
-0.032005742 -0.0043884795 0.70050001
-0.021483107 -0.004391612 0.70099998
-0.019509802 -0.0043790825 0.699
-0.0042197173 -0.0043853475 0.69999999
-0.0023049682 -0.0043853475 0.69999999
-0.0847601 -0.0024741273 0.70099998
-0.043503813 -0.0015136204 0.70049995
-0.038629938 -0.00055505469 0.699
-0.034805913 -0.00055505469 0.699
-0.032005742 -0.0005562458 0.70050001
-0.028154083 -0.0024705979 0.69999999
-0.025318075 -0.0024741273 0.70099998
-0.022411203 -0.0024705981 0.69999999
-0.019509802 -0.0024670686 0.699
-0.011878714 -0.00055584876 0.69999999
-0.0023049682 -0.00055584876 0.69999999
-0.048190009 0.0013569592 0.699
-0.030981885 0.0013569592 0.699
-0.029111456 0.0013589005 0.69999999
-0.013793464 0.0013589005 0.69999999
-0.011861744 0.0013569592 0.699
-0.048258949 0.0032736496 0.69999999
-0.046311095 0.004228686 0.69949996
-0.038010109 0.0045461198 0.69933337
-0.034855705 0.0042310245 0.69999999
-0.032940954 0.0032736496 0.69999999
-0.00614323 0.0032783262 0.70099998
-0.0042136894 0.003268973 0.699
-0.22824538 0.0071031479 0.69999999
-0.22665396 0.0071132951 0.70099998
-0.046344198 0.0071031479 0.69999999
-0.037754096 0.0071082218 0.70050001
-0.22824538 0.0099752713 0.69999999
-0.22665396 0.010948265 0.70099998
-0.21867163 0.010932647 0.69999999
-0.046410404 0.0090307798 0.70099998
-0.044429451 0.010932647 0.69999999
-0.036770456 0.0099739041 0.69999999
-0.22441588 0.012847396 0.69999999
-0.069222167 0.014741057 0.699
-0.040657952 0.012865749 0.70099998
-0.037726462 0.012847396 0.69999999
-0.21514904 0.02245317 0.70099998
-0.067406438 0.022421142 0.69999999
-0.21514904 0.024370657 0.70099998
-0.22824538 0.033909637 0.69999999
-0.22250113 0.033909637 0.69999999
-0.063486122 0.041509252 0.699
-0.055917948 0.041568633 0.69999999
-0.22058639 0.049227633 0.69999999
-0.21786907 0.049262792 0.70050001
-0.22903836 0.053019233 0.69949996
-0.061574105 0.052981336 0.699
-0.22058639 0.056886628 0.69999999
-0.075065434 0.056886628 0.69999999
-0.22983134 0.058717374 0.699
-0.046344198 0.064545624 0.69999999
-0.22983134 0.066365436 0.699
-0.043688752 -0.10639639 0.70350003
-0.040831953 -0.10647201 0.704
-0.048534714 -0.10262063 0.704
-0.04654282 -0.10247487 0.70300001
-0.043626651 -0.10432357 0.70249999
-0.040744953 -0.10336346 0.70249999
-0.037863255 -0.10240199 0.70249999
-0.034955293 -0.1023291 0.70200002
-0.043688752 -0.10062342 0.70350003
-0.040831953 -0.10069494 0.704
-0.037943415 -0.10069494 0.704
-0.043628022 -0.098558806 0.70249999
-0.040715955 -0.098488659 0.70200002
-0.037915785 -0.098699108 0.70350003
-0.040715955 -0.094648227 0.70200002
-0.037861891 -0.09471564 0.70249999
-0.040773954 -0.09093713 0.70300001
-0.037889518 -0.092860088 0.70300001
-0.033129189 -0.091066487 0.704
-0.019649355 -0.091066487 0.704
-0.0080952113 -0.091066487 0.704
-0.040773954 -0.087091222 0.70300001
-0.037889518 -0.08901418 0.70300001
-0.034379791 -0.087773502 0.70333338
-0.0071323663 -0.087215103 0.704
-0.038795736 -0.086967342 0.70200002
-0.027274415 -0.085047118 0.70200002
-0.023433976 -0.086967342 0.70200002
-0.036980573 -0.083363719 0.704
-0.0343807 -0.082643799 0.70333338
-0.040715955 -0.079286464 0.70200002
-0.059918154 -0.075446017 0.70200002
-0.055234693 -0.075607225 0.70350003
-0.049461722 -0.075607225 0.70350003
-0.04654282 -0.075553492 0.70300001
-0.042696908 -0.077476442 0.70300001
-0.060003508 -0.073630534 0.70300001
-0.058080554 -0.073630534 0.70300001
-0.050317056 -0.073525801 0.70200002
-0.060003508 -0.071707584 0.70300001
-0.057997935 -0.071605578 0.70200002
-0.055517524 -0.071066588 0.70300001
-0.067791618 -0.064106822 0.704
-0.0042378022 -0.064015761 0.70300001
-0.069519259 -0.062004477 0.70200002
-0.0042317738 -0.062004477 0.70200002
-0.0061607575 -0.058246892 0.70300001
-0.081156015 -0.048632115 0.70300001
-0.015775535 -0.050555073 0.70300001
-0.087048531 -0.046775602 0.704
-0.085001931 -0.046709161 0.70300001
-0.082960799 -0.046642717 0.70200002
-0.015797975 -0.046775602 0.704
-0.10052837 -0.042924222 0.704
-0.094616711 -0.044786207 0.70300001
-0.040773954 -0.04286325 0.70300001
-0.016724424 -0.043794245 0.70249999
-0.1140082 -0.039072838 0.704
-0.10807739 -0.040940292 0.70300001
-0.036928043 -0.039017338 0.70300001
-0.12171096 -0.037147149 0.704
-0.1117641 -0.038961839 0.70200002
-0.015753094 -0.037041616 0.70200002
-0.010961029 -0.037067998 0.70249999
-0.0080952113 -0.037147149 0.704
-0.12556234 -0.035221457 0.704
-0.058080554 -0.033248473 0.70300001
-0.033129189 -0.035221457 0.704
-0.031159177 -0.034209952 0.70300001
-0.022473864 -0.0351214 0.70200002
-0.019621445 -0.035171427 0.70300001
-0.017698489 -0.035171427 0.70300001
-0.011946592 -0.033295766 0.704
-0.027352119 -0.031370074 0.704
-0.02539031 -0.031325515 0.70300001
-0.022537893 -0.031370074 0.704
-0.019649355 -0.031370074 0.704
-0.016725792 -0.031303234 0.70249999
-0.013872284 -0.031370074 0.704
-0.063940242 -0.027518693 0.704
-0.06201455 -0.027518693 0.704
-0.033129189 -0.027518693 0.704
-0.031137016 -0.02842154 0.70249999
-0.029194634 -0.028400626 0.70200002
-0.019621445 -0.027479606 0.70300001
-0.016738379 -0.027479604 0.70300001
-0.013872284 -0.027518693 0.704
-0.011946592 -0.029444385 0.704
-0.067599036 -0.025520299 0.70200002
-0.065865934 -0.025593005 0.704
-0.034955293 -0.025520299 0.70200002
-0.013832875 -0.025520299 0.70200002
-0.079120353 -0.021679858 0.70200002
-0.077420078 -0.021741623 0.704
-0.073568694 -0.023667313 0.704
-0.036875516 -0.021679858 0.70200002
-0.034955293 -0.023600077 0.70200002
-0.019621445 -0.023633694 0.70300001
-0.017723665 -0.021741623 0.704
-0.085001931 -0.019787785 0.70300001
-0.034955293 -0.019759636 0.70200002
-0.021544401 -0.019787785 0.70300001
-0.12712584 -0.015919197 0.70200002
-0.098322555 -0.015919197 0.70200002
-0.086924881 -0.017864829 0.70300001
-0.037863255 -0.016892012 0.70249999
-0.027274415 -0.015919197 0.70200002
-0.02539031 -0.015941873 0.70300001
-0.022505879 -0.015941873 0.70300001
-0.019621445 -0.016901985 0.70300001
-0.017723665 -0.017890241 0.704
-0.12520564 -0.012078757 0.70200002
-0.1119233 -0.012095964 0.70300001
-0.10437975 -0.01403886 0.704
-0.040802956 -0.013067411 0.70350003
-0.015753094 -0.012078757 0.70200002
-0.013832875 -0.012078757 0.70200002
-0.010979505 -0.013071029 0.70375001
-0.12153808 -0.010173008 0.70300001
-0.11752475 -0.010158537 0.70200002
-0.1159339 -0.010187479 0.704
-0.044683333 -0.010187479 0.704
-0.0023181394 -0.010187479 0.704
-0.058080554 -0.0063270973 0.70300001
-0.04654282 -0.0063270973 0.70300001
-0.044683333 -0.0082617877 0.704
-0.02825395 -0.0082441848 0.70249999
-0.025354194 -0.0082383174 0.70200002
-0.002311554 -0.0082383174 0.70200002
-0.067695327 -0.004404142 0.70300001
-0.044619866 -0.004404142 0.70300001
-0.028234525 -0.004397877 0.70200002
-0.025354194 -0.004397877 0.70200002
-0.023467356 -0.004404142 0.70300001
-0.00039189137 -0.004404142 0.70300001
-0.048500244 -0.0015214734 0.70350003
-0.046476614 -0.0015175468 0.70200002
-0.028273378 -0.00055823097 0.70300001
-0.021513755 -0.0005574369 0.70200002
-0.019649355 -0.00055902504 0.704
-0.016760819 -0.00055902504 0.704
-0.013832875 -0.0005574369 0.70200002
-0.00039133392 -0.0024776568 0.70200002
-0.050460409 0.0013666656 0.704
-0.027274415 0.0013627831 0.70200002
-0.025426427 0.0013666656 0.704
-0.022522569 0.0013656949 0.70350003
-0.019649355 0.0013666656 0.704
-0.015775535 0.0013647244 0.70300001
-0.048396833 0.0052032233 0.70200002
-0.033035073 0.0052032233 0.70200002
-0.031137016 0.0042468193 0.70249999
-0.029277809 0.0032923562 0.704
-0.013872284 0.0042552017 0.704
-0.01096322 0.0042479886 0.70274997
-0.007446561 0.0045721205 0.70333338
-0.0042438302 0.0052180472 0.704
-0.0023148467 0.0032876795 0.70300001
-0.052311685 0.0071335905 0.70300001
-0.048465773 0.0071335905 0.70300001
-0.034042239 0.0071335905 0.70300001
-0.046476614 0.010963883 0.70200002
-0.034980193 0.010010215 0.70249999
-0.10230853 0.014825412 0.70300001
-0.077200137 0.014804323 0.70200002
-0.048396833 0.012884104 0.70200002
-0.040831953 0.0148465 0.704
-0.037861891 0.014814868 0.70249999
-0.060003508 0.018671323 0.70300001
-0.069519259 0.022485202 0.70200002
-0.10052837 0.026400644 0.704
-0.079233058 0.030209055 0.70300001
-0.050460409 0.030252026 0.704
-0.094751298 0.045657553 0.704
-0.07538715 0.049438607 0.70300001
-0.073568694 0.049508933 0.704
-0.05816317 0.049508933 0.704
-0.052237276 0.053208727 0.70200002
-0.071643002 0.057211693 0.704
-0.046476614 0.062809825 0.70200002
-0.03713816 -0.10885963 0.70700002
-0.035204265 -0.10885963 0.70700002
-0.046675228 -0.10662325 0.70499998
-0.037997313 -0.10662325 0.70499998
-0.035154469 -0.10677448 0.70599997
-0.049674019 -0.10395063 0.70649999
-0.046675228 -0.10469483 0.70499998
-0.037997313 -0.10469483 0.70499998
-0.034188889 -0.10387775 0.70599997
-0.048707068 -0.10008557 0.70649999
-0.046741433 -0.100981 0.70599997
-0.034187518 -0.10001406 0.70599997
-0.046675228 -0.098909549 0.70499998
-0.042879112 -0.097118676 0.70599997
-0.040889952 -0.096981116 0.70499998
-0.038049843 -0.097118676 0.70599997
-0.035104673 -0.098909549 0.70499998
-0.043846063 -0.09518753 0.70599997
-0.040889952 -0.09312427 0.70499998
-0.034175757 -0.094188236 0.70574999
-0.0081297085 -0.095322356 0.70700002
-0.042879112 -0.091325194 0.70599997
-0.017799193 -0.091454558 0.70700002
-0.01004937 -0.091325194 0.70599997
-0.0061958116 -0.091454558 0.70700002
-0.042879112 -0.087462872 0.70599997
-0.040889952 -0.089267418 0.70499998
-0.033223305 -0.08939404 0.70599997
-0.031247823 -0.087338991 0.70499998
-0.028395403 -0.087462872 0.70599997
-0.025462544 -0.087338991 0.70499998
-0.00715701 -0.089457348 0.70649999
-0.0042619146 -0.087586768 0.70700002
-0.040011372 -0.085592285 0.70649999
-0.03708563 -0.085531712 0.70599997
-0.034213785 -0.085592285 0.70649999
-0.031336471 -0.085652865 0.70700002
-0.029319396 -0.085410565 0.70499998
-0.0061870473 -0.085531712 0.70599997
-0.040011372 -0.08269418 0.70649999
-0.037997313 -0.082517922 0.70499998
-0.0061870473 -0.083600551 0.70599997
-0.0042619146 -0.08371897 0.70700002
-0.060344923 -0.07985118 0.70700002
-0.058411025 -0.07985118 0.70700002
-0.054543231 -0.07985118 0.70700002
-0.052609336 -0.07985118 0.70700002
-0.049672648 -0.079794705 0.70649999
-0.046807643 -0.07985118 0.70700002
-0.043814328 -0.079681754 0.70550001
-0.061547007 -0.077164255 0.70600003
-0.058328405 -0.077807061 0.70599997
-0.055510178 -0.077917278 0.70700002
-0.052534923 -0.076842859 0.70599997
-0.049672648 -0.077862173 0.70649999
-0.044810276 -0.077807061 0.70599997
-0.062278818 -0.074049488 0.70700002
-0.055470236 -0.073997118 0.70649999
-0.052534919 -0.073944747 0.70599997
-0.060344923 -0.07018169 0.70700002
-0.058328405 -0.070082419 0.70599997
-0.013891988 -0.054555748 0.70499998
-0.0081297085 -0.056644414 0.70700002
-0.0738822 -0.052776624 0.70700002
-0.015820414 -0.052627321 0.70499998
-0.08355169 -0.048908826 0.70700002
-0.073673196 -0.050698899 0.70499998
-0.013931399 -0.048908826 0.70700002
-0.089353375 -0.046974931 0.70700002
-0.10289065 -0.043107137 0.70700002
-0.096814305 -0.04491362 0.70499998
-0.043844692 -0.043046162 0.70599997
-0.015842855 -0.043046162 0.70599997
-0.013911693 -0.044977326 0.70599997
-0.11642794 -0.039239343 0.70700002
-0.11031329 -0.041056763 0.70499998
-0.048741538 -0.039239343 0.70700002
-0.040889952 -0.041056763 0.70499998
-0.015820414 -0.039128341 0.70499998
-0.013891988 -0.041056763 0.70499998
-0.011980531 -0.041115001 0.70599997
-0.052460507 -0.037199914 0.70499998
-0.03708563 -0.037252679 0.70599997
-0.013891988 -0.037199914 0.70499998
-0.1280313 -0.035371549 0.70700002
-0.056477129 -0.035371549 0.70700002
-0.033223305 -0.033390354 0.70599997
-0.015820414 -0.035271488 0.70499998
-0.013911693 -0.035321519 0.70599997
-0.010694004 -0.034678709 0.70600003
-0.029319396 -0.031414635 0.70499998
-0.011997501 -0.031503756 0.70700002
-0.060259566 -0.02759687 0.70599997
-0.058411025 -0.029569861 0.70700002
-0.033223305 -0.029528033 0.70599997
-0.011997501 -0.027635962 0.70700002
-0.03708563 -0.025665712 0.70599997
-0.011997501 -0.025702067 0.70700002
-0.039016791 -0.021803387 0.70599997
-0.03708563 -0.023734549 0.70599997
-0.016463222 -0.023058122 0.70499998
-0.013911693 -0.022768967 0.70599997
-0.083433501 -0.019872226 0.70599997
-0.039072055 -0.019900376 0.70700002
-0.0370331 -0.019844079 0.70499998
-0.019677266 -0.019844079 0.70499998
-0.017799193 -0.019900376 0.70700002
-0.096951626 -0.016009904 0.70599997
-0.085485585 -0.017966479 0.70700002
-0.040976953 -0.016986825 0.70649999
-0.038961526 -0.015987227 0.70499998
-0.016485663 -0.016653625 0.70600003
-0.1278502 -0.014078743 0.70599997
-0.11046976 -0.012147581 0.70599997
-0.10259958 -0.014058801 0.70499998
-0.042879112 -0.012147581 0.70599997
-0.0074783214 -0.012797949 0.70633334
-0.11433208 -0.01021642 0.70599997
-0.08741948 -0.010230891 0.70700002
-0.085485585 -0.010230891 0.70700002
-0.00039300625 -0.010201949 0.70499998
0.0015397756 -0.010230891 0.70700002
-0.085243754 -0.0063450974 0.70499998
-0.00039300625 -0.0082735233 0.70499998
0.0015354197 -0.0063450974 0.70499998
-0.046675228 -0.0044166711 0.70499998
-0.025462544 -0.00055981911 0.70499998
-0.023534119 -0.00055981911 0.70499998
-0.00039412119 -0.00056140724 0.70700002
-0.01774884 0.0013686068 0.70499998
-0.00039412119 0.0013724895 0.70700002
-0.050567921 0.0042649517 0.70550001
-0.028395403 0.0042672902 0.70599997
-0.015865296 0.0042733345 0.70700002
-0.050532084 0.007153885 0.70499998
-0.031247823 0.007153885 0.70499998
-0.011023436 0.007169106 0.70649999
-0.0071468791 0.0071589584 0.70550001
-0.079458475 0.011010737 0.70499998
-0.077530049 0.011010737 0.70499998
-0.052460507 0.0090823108 0.70499998
-0.048603654 0.0090823108 0.70499998
-0.033199776 0.010052965 0.70550001
-0.031247823 0.010046524 0.70499998
-0.10675844 0.014909768 0.70700002
-0.10408106 0.013606444 0.70633334
-0.10067116 0.014867589 0.70499998
-0.042818379 0.012939163 0.70499998
-0.034187518 0.013923097 0.70599997
-0.10274512 0.016819838 0.70599997
-0.10095676 0.016843664 0.70700002
-0.10274512 0.018750999 0.70599997
-0.10095676 0.01877756 0.70700002
-0.10274512 0.022613322 0.70599997
-0.10081396 0.022613322 0.70599997
-0.089353375 0.022645354 0.70700002
-0.10334033 0.025819426 0.7056666
-0.099847011 0.024544485 0.70599997
-0.098882794 0.026475644 0.70599997
-0.087295823 0.026475644 0.70599997
-0.08741948 0.031347889 0.70700002
-0.088199586 0.03417607 0.70550001
-0.085364662 0.034200292 0.70599997
-0.08741948 0.037149578 0.70700002
-0.08536467 0.037095666 0.70599997
-0.083433501 0.038062613 0.70599997
-0.097088963 0.041984323 0.70700002
-0.082828268 0.040655468 0.70633334
-0.049674019 0.041954629 0.70649999
-0.046807643 0.041984323 0.70700002
-0.095155068 0.043918218 0.70700002
-0.08355169 0.043918218 0.70700002
-0.099022858 0.045852117 0.70700002
-0.096814305 0.045722406 0.70499998
-0.094122186 0.046786636 0.70649999
-0.083433501 0.04578726 0.70599997
-0.07174477 0.049579255 0.70499998
-0.060174212 0.053436112 0.70499998
-0.12126268 0.058422439 0.70700002
-0.10289065 0.057455495 0.70700002
-0.09128727 0.057455495 0.70700002
-0.089353375 0.057455495 0.70700002
-0.12109115 0.061236549 0.70599997
-0.1181944 0.061236549 0.70599997
-0.11449403 0.061323293 0.70700002
-0.10675844 0.061323293 0.70700002
-0.10378483 0.061279923 0.70649999
-0.10081396 0.061236549 0.70599997
-0.097985879 0.061279923 0.70649999
-0.10289065 0.063257188 0.70700002
-0.085243754 0.065006666 0.70499998
-0.066053048 0.068961196 0.70599997
-0.2234225 -0.17898481 0.70899999
-0.22536185 -0.17510606 0.70899999
-0.22310737 -0.17485909 0.708
-0.2234225 -0.17122732 0.70899999
-0.039237849 -0.11126366 0.70999998
-0.03341154 -0.11126366 0.70999998
-0.043122053 -0.10932154 0.70999998
-0.040095635 -0.1090136 0.708
-0.037190691 -0.11095024 0.708
-0.034309268 -0.1100589 0.70850003
-0.049814634 -0.1061829 0.70850003
-0.033317424 -0.10610865 0.708
-0.031469438 -0.10737944 0.70999998
-0.031425115 -0.10334947 0.70899999
-0.050854631 -0.10051057 0.70949996
-0.033317424 -0.10126707 0.708
-0.031425115 -0.099470735 0.70899999
-0.046940055 -0.097531363 0.70899999
-0.044937219 -0.097393803 0.708
-0.034285739 -0.097393803 0.708
-0.031469438 -0.097668923 0.70999998
-0.048948359 -0.095726833 0.70999998
-0.046940055 -0.095592007 0.70899999
-0.04306132 -0.093652636 0.70899999
-0.031425115 -0.094620958 0.70899999
-0.029527334 -0.095726833 0.70999998
-0.010092074 -0.094620958 0.70899999
-0.0081527056 -0.093652636 0.70899999
-0.046003476 -0.091777936 0.70949996
-0.031380791 -0.091583908 0.708
-0.028516065 -0.091713265 0.70899999
-0.025607012 -0.091713265 0.70899999
-0.021758923 -0.091842614 0.70999998
-0.046003476 -0.087896474 0.70949996
-0.043000586 -0.089647286 0.708
-0.031469438 -0.089900523 0.70999998
-0.027585233 -0.089900523 0.70999998
-0.025643129 -0.089900523 0.70999998
-0.021728277 -0.089773901 0.70899999
-0.010084957 -0.088742271 0.70850003
-0.048948359 -0.084074207 0.70999998
-0.04306132 -0.085895166 0.70899999
-0.0081527056 -0.084924117 0.70899999
-0.0042679431 -0.085774019 0.708
-0.049919412 -0.082132109 0.70999998
-0.045970373 -0.082986116 0.70899999
-0.043030955 -0.082926907 0.70850003
-0.041063953 -0.081900753 0.708
-0.0042799991 -0.082132109 0.70999998
-0.062366903 -0.079964124 0.708
-0.056557011 -0.079964124 0.708
-0.046940055 -0.078137688 0.70899999
-0.062366903 -0.072217591 0.708
-0.06430354 -0.066407695 0.708
-0.062366903 -0.068344325 0.708
-0.073986702 -0.05672453 0.708
-0.078079909 -0.051058464 0.70999998
-0.085848317 -0.049116358 0.70999998
-0.075923331 -0.050914638 0.708
-0.099302977 -0.045168448 0.70899999
-0.01299264 -0.046106279 0.70850003
-0.10526934 -0.043290053 0.70999998
-0.013951104 -0.043168109 0.708
-0.11852924 -0.039294846 0.708
-0.11271933 -0.041231476 0.708
-0.04306132 -0.04128971 0.70899999
-0.03912732 -0.039294846 0.708
-0.013001124 -0.039350346 0.70899999
-0.010092073 -0.040320028 0.70899999
-0.0081642047 -0.039405845 0.70999998
-0.12433913 -0.037358213 0.708
-0.0062045748 -0.037358213 0.708
-0.13227223 -0.033532243 0.70899999
-0.13051668 -0.035521641 0.70999998
-0.035254057 -0.03542158 0.708
-0.0081412066 -0.034453265 0.708
-0.058658879 -0.031637434 0.70999998
-0.031380791 -0.031548314 0.708
-0.010092073 -0.031592872 0.70899999
-0.13208567 -0.029611684 0.708
-0.03530385 -0.02868519 0.70899999
-0.010092073 -0.029653508 0.70899999
-0.06430354 -0.02573842 0.708
-0.061441265 -0.025756598 0.70850003
-0.075923331 -0.021865154 0.708
-0.072050065 -0.023801787 0.708
-0.01203144 -0.021896036 0.70899999
-0.13033286 -0.019956669 0.70899999
-0.081848666 -0.019956669 0.70899999
-0.041179951 -0.019984817 0.70999998
-0.015910177 -0.019956669 0.70899999
-0.013019461 -0.019013766 0.70999998
-0.094453186 -0.016077936 0.70899999
-0.091674618 -0.016100612 0.70999998
-0.013316873 -0.01671592 0.70866662
-0.10884608 -0.012181995 0.708
-0.10027129 -0.014138568 0.70899999
-0.088699654 -0.013178172 0.70949996
-0.085848317 -0.013187458 0.70999998
-0.081964105 -0.014158509 0.70999998
-0.079965651 -0.013177488 0.70949996
-0.077000253 -0.014138568 0.70899999
-0.073122881 -0.014138568 0.70899999
-0.070113435 -0.014118627 0.708
-0.068176799 -0.014118627 0.708
-0.064485185 -0.014158509 0.70999998
-0.061485309 -0.014138568 0.70899999
-0.045000687 -0.012199201 0.70899999
-0.043000586 -0.014118627 0.708
-0.0062045748 -0.014118627 0.708
-0.0042739711 -0.013170252 0.70899999
-0.12433913 -0.010245362 0.708
-0.11271933 -0.010245362 0.708
-0.089606144 -0.010259832 0.70899999
-0.082877442 -0.010267068 0.70949996
-0.079909302 -0.010259832 0.70899999
-0.077859968 -0.010245362 0.708
-0.070311494 -0.010274303 0.70999998
-0.046940055 -0.010259832 0.70899999
-0.087666772 -0.0063810982 0.70899999
-0.085848317 -0.0083322003 0.70999998
-0.06642729 -0.006390098 0.70999998
-0.048879419 -0.0063810982 0.70899999
-0.046940055 -0.0083204657 0.70899999
0.0015419535 -0.0083087301 0.708
-0.085606493 -0.0044354657 0.708
-0.048810478 -0.0044354657 0.708
0.0015463092 -0.0044479952 0.70999998
-0.050747115 -0.0015305174 0.708
-0.10526934 0.0013783133 0.70999998
-0.10332724 0.0013783133 0.70999998
-0.052758157 0.0013763721 0.70899999
-0.10318171 0.0052551068 0.70899999
-0.052683745 0.0042793788 0.708
-0.027507529 0.0052476949 0.708
-0.025570896 0.0033110627 0.708
-0.022713285 0.0033180777 0.70949996
-0.019802865 0.0042891288 0.70949996
-0.017862132 0.0042877616 0.70949996
-0.029485747 0.0071944743 0.70899999
-0.013990513 0.0072046216 0.70999998
-0.0042799991 0.0072046216 0.70999998
-0.10706044 0.011073209 0.70899999
-0.1040045 0.011057592 0.708
-0.10138515 0.011088828 0.70999998
-0.05081879 0.0091338418 0.70899999
-0.02944416 0.010089275 0.708
-0.010092073 0.0091338418 0.70899999
-0.0075091706 0.0097855031 0.70933336
-0.10706044 0.013012577 0.70899999
-0.10020263 0.013971716 0.70850003
-0.076030567 0.014951944 0.70899999
-0.073172398 0.014962489 0.70949996
-0.054697525 0.014951944 0.70899999
-0.047006261 0.01303093 0.70999998
-0.04399927 0.013973083 0.70850003
-0.031469438 0.014001981 0.70999998
-0.10497282 0.016867487 0.708
-0.048948359 0.016915135 0.70999998
-0.10407726 0.019787084 0.70850003
-0.10034406 0.019815009 0.70949996
-0.070212469 0.018830679 0.70899999
-0.10512108 0.022709413 0.70899999
-0.099162921 0.022677384 0.708
-0.10609076 0.025618464 0.70899999
-0.097226284 0.026550647 0.708
-0.087543122 0.024614017 0.708
-0.048844948 0.025599714 0.70850003
-0.039237849 0.026625648 0.70999998
-0.10641398 0.03111425 0.70899993
-0.089479759 0.031392232 0.708
-0.085666955 0.031415083 0.70850003
-0.083906218 0.034394063 0.70999998
-0.06739834 0.034394063 0.70999998
-0.089669332 0.037281625 0.70949996
-0.081733227 0.038170442 0.708
-0.080022007 0.038278267 0.70999998
-0.06642729 0.038278267 0.70999998
-0.085606493 0.040107071 0.708
-0.048948359 0.040220369 0.70999998
-0.099855147 0.042709958 0.70833331
-0.097226284 0.043980338 0.708
-0.094520479 0.043103829 0.70949996
-0.085606493 0.042043705 0.708
-0.067280024 0.043057922 0.70874995
-0.048879419 0.044042453 0.70899999
-0.047006261 0.044104572 0.70999998
-0.097363606 0.047921192 0.70899999
-0.093484871 0.047921192 0.70899999
-0.0915455 0.04695151 0.70899999
-0.085727409 0.045981824 0.70899999
-0.082935162 0.04798878 0.70999998
-0.072151832 0.047921192 0.70899999
-0.070113435 0.047853604 0.708
-0.068176799 0.046885289 0.708
-0.0915455 0.049860559 0.70899999
-0.082935162 0.049930882 0.70999998
-0.080022007 0.049930882 0.70999998
-0.077969939 0.049860559 0.70899999
-0.043122053 0.049930882 0.70999998
-0.088574633 0.053701397 0.70850003
-0.085606493 0.0536635 0.708
-0.079050958 0.053815089 0.70999998
-0.076137796 0.053815089 0.70999998
-0.064485185 0.051872984 0.70999998
-0.062543079 0.051872984 0.70999998
-0.05857626 0.053739294 0.70899999
-0.089606144 0.055678662 0.70899999
-0.070113435 0.055600129 0.708
-0.0915455 0.059557393 0.70899999
-0.089606144 0.061496764 0.70899999
-0.045000687 0.061496764 0.70899999
-0.037295748 0.0615835 0.70999998
-0.1040045 0.064314976 0.708
-0.10013124 0.064314976 0.708
-0.087543122 0.064314976 0.708
-0.045000687 0.063436128 0.70899999
-0.043968901 0.065283291 0.708
-0.040475499 0.064728133 0.70899993
-0.037295748 0.064496651 0.70999998
-0.041121952 0.067314871 0.70899999
-0.076030567 0.069254234 0.70899999
-0.041295953 -0.11157708 0.71200001
-0.031602409 -0.11173378 0.713
-0.045191102 -0.1096295 0.71200001
-0.031558085 -0.1096295 0.71200001
-0.050962146 -0.10753068 0.71100003
-0.031513762 -0.10558585 0.71100003
-0.053055804 -0.10393254 0.713
-0.029652098 -0.10393254 0.713
-0.031513762 -0.10169617 0.71100003
-0.029610511 -0.099891633 0.71200001
-0.049017306 -0.097806498 0.71100003
-0.029652098 -0.098081619 0.713
-0.0062483926 -0.09613131 0.713
-0.049155187 -0.094181001 0.713
-0.046133153 -0.09398286 0.71150005
-0.028635357 -0.09404891 0.71200001
-0.019872645 -0.09404891 0.71200001
-0.017275879 -0.095346391 0.71200007
-0.012731541 -0.095346391 0.71200007
-0.0062396289 -0.09404891 0.71200001
-0.049086247 -0.092101336 0.71200001
-0.046197988 -0.090217076 0.71249998
-0.029568924 -0.090027146 0.71100003
-0.023734411 -0.090999559 0.71100003
-0.015977498 -0.090153769 0.71200001
-0.01208235 -0.092101336 0.71200001
-0.0042920555 -0.090153769 0.71200001
-0.049155187 -0.088330075 0.713
-0.053055804 -0.08442945 0.713
-0.050058667 -0.0852862 0.71200001
-0.046164885 -0.08625862 0.71200001
-0.014010219 -0.086137466 0.71100003
-0.0023477748 -0.08442945 0.713
-0.055006113 -0.082479142 0.713
-0.052906983 -0.082247794 0.71100003
-0.012099318 -0.082479142 0.713
-0.0062396289 -0.082363471 0.71200001
-0.064712249 -0.079498574 0.71249998
-0.010134776 -0.078468315 0.71200001
-0.0042860275 -0.080302954 0.71100003
-0.0023477748 -0.08052884 0.713
-0.064576015 -0.076413274 0.71100003
-0.062807351 -0.07077729 0.713
-0.07050956 -0.06483531 0.71200001
-0.073378667 -0.061871149 0.71150005
-0.074300207 -0.058909733 0.71100003
-0.0042980835 -0.059075441 0.713
-0.074300207 -0.055020053 0.71100003
-0.080247425 -0.051202293 0.71200001
-0.014029924 -0.052177444 0.71200001
-0.088161364 -0.049323894 0.713
-0.012099318 -0.049323894 0.713
-0.10152794 -0.045295864 0.71100003
-0.091932863 -0.047307145 0.71200001
-0.01206538 -0.043351024 0.71100003
-0.11514181 -0.041406184 0.71100003
-0.04512763 -0.041406184 0.71100003
-0.041353952 -0.039572351 0.713
-0.050962146 -0.037516508 0.71100003
-0.039293114 -0.037516508 0.71100003
-0.055006113 -0.035671733 0.713
-0.037453335 -0.035671733 0.713
-0.035403438 -0.033626832 0.71100003
-0.0062352475 -0.034624267 0.71150005
-0.033458602 -0.031681996 0.71100003
-0.0081987008 -0.031771112 0.713
-0.058906734 -0.027870495 0.713
-0.037400808 -0.027831407 0.71200001
-0.0081872027 -0.029778982 0.71200001
-0.039293114 -0.025847482 0.71100003
-0.074404702 -0.021988686 0.71200001
-0.070410527 -0.023902642 0.71100003
-0.06763497 -0.022977915 0.71249998
-0.040265534 -0.022930223 0.71100003
-0.01206538 -0.023902642 0.71100003
-0.01014901 -0.022019569 0.713
-0.0840244 -0.018068127 0.71100003
-0.082310438 -0.018118951 0.713
-0.079328626 -0.019080032 0.71249998
-0.076459512 -0.018118951 0.713
-0.073534049 -0.018118951 0.713
-0.07050956 -0.018093539 0.71200001
-0.067588195 -0.018093539 0.71200001
-0.064666837 -0.018093539 0.71200001
-0.061788153 -0.018106245 0.71249998
-0.043243527 -0.018093539 0.71200001
-0.012099318 -0.02006926 0.713
-0.010134776 -0.018093539 0.71200001
-0.088948317 -0.016134627 0.71150005
-0.076459512 -0.016168643 0.713
-0.072558895 -0.016168643 0.713
-0.070608586 -0.016168643 0.713
-0.068561979 -0.016145967 0.71200001
-0.06475766 -0.016168643 0.713
-0.061832197 -0.016168643 0.713
-0.043243527 -0.016145967 0.71200001
-0.010120543 -0.016123289 0.71100003
-0.091932863 -0.014198393 0.71200001
-0.084142581 -0.013223238 0.71200001
-0.082194999 -0.012250819 0.71200001
-0.07818988 -0.012233614 0.71100003
-0.076459512 -0.012268025 0.713
-0.072558895 -0.012268025 0.713
-0.07050956 -0.012250819 0.71200001
-0.067231506 -0.012893364 0.71166664
-0.064666837 -0.012250819 0.71200001
-0.061701432 -0.012242217 0.71150005
-0.058906734 -0.014218334 0.713
-0.05590412 -0.014198393 0.71200001
-0.052331295 -0.013549201 0.71200007
-0.04512763 -0.014178452 0.71100003
-0.001694379 -0.012900011 0.71200007
-0.07624504 -0.010288775 0.71100003
-0.073327787 -0.010288775 0.71100003
-0.06754005 -0.01029601 0.71150005
-0.064576015 -0.010288775 0.71100003
-0.061701432 -0.01029601 0.71150005
-0.055006113 -0.010317716 0.713
-0.052981395 -0.010303246 0.71200001
0.0034982387 -0.010303246 0.71200001
-0.10347278 -0.0063990988 0.71100003
-0.08894968 -0.007376018 0.71150005
-0.0840244 -0.0063990988 0.71100003
-0.088037722 -0.0044605248 0.71200001
-0.087914072 -0.0025094217 0.71100003
0.0015506651 -0.0025129511 0.71200001
-0.087914072 0.0013802546 0.71100003
-0.087975897 0.0042998502 0.71150005
-0.054928966 0.0052773431 0.71200001
-0.025679247 0.0052699312 0.71100003
-0.022777315 0.0052736374 0.71150005
-0.0023411892 0.0052699312 0.71100003
-0.08894968 0.0072198426 0.71150005
-0.027624087 0.0072147693 0.71100003
-0.015999937 0.0072350637 0.713
-0.027643513 0.010139836 0.71150005
-0.01208235 0.0091724899 0.71200001
-0.010120543 0.011104446 0.71100003
-0.0062396289 0.011120064 0.71200001
-0.076352276 0.013067638 0.71200001
-0.029610511 0.013067638 0.71200001
-0.072355367 0.01693896 0.71100003
-0.070410527 0.01693896 0.71100003
-0.056956425 0.0150363 0.713
-0.046164885 0.015015211 0.71200001
-0.039348379 0.016962783 0.71200001
-0.037348278 0.01693896 0.71100003
-0.034431018 0.01693896 0.71100003
-0.062719263 0.018910358 0.71200001
-0.049017306 0.020828636 0.71100003
-0.033552717 0.018936917 0.713
-0.045191102 0.026700651 0.71200001
-0.04318279 0.026663151 0.71100003
-0.040320799 0.025725499 0.71200001
-0.037348278 0.026663151 0.71100003
-0.035503026 0.026738152 0.713
-0.04525457 0.028688462 0.713
-0.043243527 0.028648226 0.71200001
-0.040265534 0.028607991 0.71100003
-0.037400808 0.028648226 0.71200001
-0.06754005 0.032520518 0.71150005
-0.051105499 0.032589078 0.713
-0.049051777 0.031548101 0.71150005
-0.046229724 0.030638771 0.713
-0.043304261 0.030638771 0.713
-0.040322166 0.030595802 0.71200001
-0.037400808 0.030595802 0.71200001
-0.050024197 0.034466729 0.71150005
-0.07818988 0.038332183 0.71100003
-0.07624504 0.038332183 0.71100003
-0.067817412 0.037035625 0.71100003
-0.064666837 0.037410937 0.71200001
-0.052044816 0.038413052 0.71249998
-0.049120717 0.037437893 0.71249998
-0.067493275 0.040277019 0.71100003
-0.064576015 0.040277019 0.71100003
-0.055864181 0.040305343 0.71150005
-0.052906983 0.040277019 0.71100003
-0.050962146 0.040277019 0.71100003
-0.047072466 0.040277019 0.71100003
-0.049017306 0.046111539 0.71100003
-0.047138672 0.046176393 0.71200001
-0.043304261 0.046241246 0.713
-0.041353952 0.046241246 0.713
-0.05590412 0.050071537 0.71200001
-0.052332204 0.049421433 0.71200007
-0.045222834 0.049131542 0.71249998
-0.043243527 0.048123963 0.71200001
-0.060686335 0.051946048 0.71100003
-0.055824243 0.053890891 0.71100003
-0.052007608 0.052019108 0.71200001
-0.037453335 0.059893403 0.713
-0.04318279 0.061670244 0.71100003
-0.040265534 0.061670244 0.71100003
-0.019900555 0.061843716 0.713
-0.04318279 0.063615076 0.71100003
-0.039293114 0.063615076 0.71100003
-0.034770843 0.064942367 0.71133333
-0.027701791 0.065744326 0.713
-0.025751481 0.065744326 0.713
-0.022777315 0.06560602 0.71150005
-0.019900555 0.064769179 0.713
-0.04318279 0.067504756 0.71100003
-0.039293114 0.067504756 0.71100003
-0.037400808 0.067599699 0.71200001
-0.029652098 0.067694642 0.713
-0.025751481 0.067694642 0.713
-0.02282602 0.067694642 0.713
-0.058741499 0.069449596 0.71100003
-0.034648255 -0.11408269 0.7155
-0.043486468 -0.11220391 0.71600002
-0.04733729 -0.11009141 0.71499997
-0.029776864 -0.11024539 0.71600002
-0.05320463 -0.10617986 0.71499997
-0.02971448 -0.10708213 0.71449995
-0.053130217 -0.10212526 0.71399999
-0.029693685 -0.10212526 0.71399999
-0.05320463 -0.10031252 0.71499997
-0.027779495 -0.10031252 0.71499997
-0.010191713 -0.10045283 0.71600002
-0.051177174 -0.097242653 0.71399999
-0.027740642 -0.096266136 0.71399999
-0.025859833 -0.096535794 0.71600002
-0.021942804 -0.096535794 0.71600002
-0.018991075 -0.097447634 0.7155
-0.016044818 -0.098356739 0.71499997
-0.013119632 -0.098425522 0.7155
-0.010163245 -0.098219179 0.71399999
-0.0082101999 -0.098219179 0.71399999
-0.025787598 -0.094313093 0.71399999
-0.022906737 -0.094511226 0.7155
-0.016067259 -0.094577275 0.71600002
-0.049362011 -0.090660252 0.71600002
-0.016067259 -0.092618756 0.71600002
-0.012150228 -0.090660252 0.71600002
-0.0043101399 -0.092489399 0.71499997
-0.014089038 -0.088577837 0.71499997
-0.055237558 -0.084784701 0.71600002
-0.05132053 -0.086743221 0.71600002
-0.010177479 -0.086622059 0.71499997
-0.0023543604 -0.086622059 0.71499997
-0.061918914 -0.082594819 0.71399999
-0.058052771 -0.082652658 0.71449995
-0.0023543604 -0.082710497 0.71499997
-0.0062659192 -0.08075472 0.71499997
-0.064984724 -0.073960498 0.7155
-0.008233198 -0.074992128 0.71600002
-0.066988647 -0.067158066 0.71600002
-0.076566748 -0.053299159 0.71399999
-0.012116288 -0.047440026 0.71399999
-0.010177479 -0.045550689 0.71499997
-0.0072380593 -0.040632121 0.71449995
-0.041527953 -0.037780341 0.71600002
-0.0043101399 -0.037727572 0.71499997
-0.037610926 -0.03386331 0.71600002
-0.035602614 -0.031860232 0.71499997
-0.037505865 -0.029862629 0.71399999
-0.010163245 -0.027909584 0.71399999
-0.05898935 -0.025956541 0.71399999
-0.041498952 -0.025033182 0.7155
-0.010163245 -0.025956541 0.71399999
-0.064848483 -0.022050451 0.71399999
-0.055160407 -0.022081334 0.71499997
-0.05508326 -0.018144364 0.71399999
-0.052225374 -0.018169776 0.71500003
-0.010191713 -0.020153703 0.71600002
-0.0082216989 -0.018169776 0.71499997
-0.066801526 -0.01619132 0.71399999
-0.053130217 -0.01619132 0.71399999
-0.0072481912 -0.016225334 0.7155
-0.05508326 -0.012285232 0.71399999
-0.051248848 -0.012302438 0.71499997
-0.049293071 -0.01327896 0.71500003
-0.047271084 -0.013261754 0.71399999
-0.00039802337 -0.014238276 0.71399999
0.0015571987 -0.012302438 0.71499997
-0.058012828 -0.010332187 0.71399999
-0.049224127 -0.010332187 0.71399999
0.0035129783 -0.0064350986 0.71499997
-0.051177174 -0.0044730543 0.71399999
-0.05508326 -0.0025200099 0.71399999
-0.05508326 0.0013860784 0.71399999
-0.00039913828 0.003348476 0.71600002
-0.025787598 0.0072452109 0.71399999
-0.017975422 0.0072452109 0.71399999
-0.014108744 0.0092240209 0.71600002
-0.041411951 0.017010432 0.71399999
-0.031646732 0.017010432 0.71399999
-0.029693685 0.015057388 0.71399999
-0.031691056 0.019969294 0.71500003
-0.034601197 0.02288558 0.71449995
-0.037505865 0.024822609 0.71399999
-0.035552818 0.028728697 0.71399999
-0.017975422 0.061930452 0.71399999
-0.037715983 -0.11448131 0.71799999
-0.031868346 -0.11464075 0.71899998
-0.045635395 -0.11267404 0.71899998
-0.029818449 -0.11236062 0.71700001
-0.053427868 -0.10858935 0.71799999
-0.049430951 -0.11039937 0.71700001
-0.027934905 -0.10874058 0.71899998
-0.027934905 -0.10677388 0.71899998
-0.027876627 -0.10360651 0.71749997
-0.025932066 -0.10073341 0.71799999
-0.016134579 -0.10087371 0.71899998
-0.013166159 -0.10073341 0.71799999
-0.008244697 -0.10059312 0.71700001
-0.027857201 -0.098631866 0.71700001
-0.023934701 -0.09667062 0.71700001
-0.051392205 -0.094709367 0.71700001
-0.014128448 -0.094709367 0.71700001
-0.051463883 -0.092877463 0.71799999
-0.014148153 -0.092877463 0.71799999
-0.051392205 -0.088825613 0.71700001
-0.012167197 -0.088825613 0.71700001
-0.002360946 -0.088825613 0.71700001
-0.061198454 -0.084903114 0.71700001
-0.012201136 -0.085139938 0.71899998
-0.010234416 -0.085139938 0.71899998
-0.0082561951 -0.083057538 0.71799999
-0.0043282243 -0.079129569 0.71799999
-0.002364239 -0.079129569 0.71799999
-0.0063009732 -0.071372889 0.71899998
-0.0062834467 -0.057445604 0.71700001
