# .PCD v0.7 - Point Cloud Data file format
VERSION 0.7
FIELDS x y z
SIZE 4 4 4
TYPE F F F
COUNT 1 1 1
WIDTH 1313
HEIGHT 1
VIEWPOINT 0 0 0 1 0 0 0
POINTS 1313
DATA ascii
0.033818733 -0.056364551 0.59505367
0.034817711 -0.056243997 0.59378093
0.035832975 -0.056156155 0.59285355
0.036858328 -0.056088757 0.59214205
0.037891552 -0.0560368 0.5915935
0.038931437 -0.055997271 0.59117621
0.03997856 -0.055969987 0.59088814
0.041032329 -0.055953179 0.5907107
0.042093612 -0.055947207 0.59064764
0.043162011 -0.055950757 0.59068513
0.044238158 -0.055963933 0.59082425
0.045323901 -0.055988345 0.59108198
0.046421807 -0.056026321 0.59148288
0.047535226 -0.056080882 0.5920589
0.048670985 -0.056158829 0.5928818
0.049842604 -0.056273907 0.59409672
0.051106784 -0.056486446 0.59634054
-0.076139823 -0.055619869 0.59859365
-0.074446037 -0.055165052 0.5936988
-0.072779737 -0.054717615 0.5888834
-0.071139693 -0.054276954 0.5841409
-0.069525681 -0.053843196 0.57947272
-0.067941934 -0.053419992 0.57491809
-0.066765316 -0.05330874 0.57372075
-0.0657719 -0.053342566 0.57408482
-0.063047409 -0.055503275 0.59733886
-0.061606102 -0.05517764 0.59383428
-0.060175661 -0.054850381 0.59031224
-0.058762085 -0.054526981 0.58683175
-0.057365086 -0.054207377 0.58339208
-0.055984356 -0.05389148 0.57999235
-0.054760709 -0.05371765 0.57812154
-0.053751964 -0.053751964 0.57849085
-0.052742001 -0.053786397 0.57886142
-0.026089381 -0.054840941 0.59021068
-0.024934931 -0.054644637 0.58809799
-0.023826482 -0.054536168 0.58693063
-0.022735899 -0.05446041 0.5861153
-0.021656282 -0.054404806 0.58551687
-0.0205842 -0.0543634 0.58507127
-0.019517584 -0.054332737 0.58474123
-0.018455179 -0.054310959 0.58450687
-0.017396927 -0.0542995 0.58438355
-0.016341534 -0.054296061 0.58434653
-0.015288118 -0.054299179 0.58438009
-0.014236361 -0.054309081 0.58448666
-0.013186737 -0.054329358 0.58470488
-0.012137942 -0.054356873 0.58500099
-0.011089726 -0.054392468 0.58538407
-0.010041922 -0.054437794 0.58587188
-0.008994638 -0.054496925 0.58650827
-0.0079473825 -0.054572031 0.58731657
-0.0069000842 -0.054669898 0.58836985
-0.0058542909 -0.054817449 0.58995783
0.033870079 -0.055374891 0.59595716
0.034854077 -0.055230308 0.59440112
0.035860747 -0.055129208 0.59331304
0.036880795 -0.055053942 0.59250301
0.037909981 -0.05499617 0.59188128
0.038946595 -0.054952048 0.5914064
0.039990734 -0.054920606 0.59106803
0.041041248 -0.054899335 0.59083909
0.042097732 -0.054886915 0.59070545
0.043161646 -0.054884564 0.59068012
0.044234905 -0.054893918 0.59078079
0.045316812 -0.054913312 0.59098953
0.046409369 -0.054944426 0.59132439
0.047515322 -0.05498964 0.591811
0.048639428 -0.05505342 0.59249741
0.049789649 -0.055143375 0.59346551
0.050993774 -0.055287983 0.59502184
-0.075852923 -0.054334365 0.59633815
-0.074186705 -0.053905446 0.59163064
-0.072546646 -0.053483292 0.58699733
-0.07093256 -0.053068064 0.58244008
-0.069343351 -0.052659236 0.57795304
-0.067782044 -0.052259438 0.57356513
-0.066770613 -0.052277766 0.57376629
-0.065777101 -0.052310921 0.57413018
-0.061886217 -0.054352242 0.59653437
-0.060434081 -0.0540163 0.59284729
-0.058999769 -0.053684473 0.58920538
-0.057582978 -0.053356707 0.58560801
-0.056180958 -0.053030625 0.58202916
-0.054787427 -0.052700289 0.57840359
-0.053756356 -0.052712545 0.57853812
-0.052746315 -0.052746315 0.57890874
-0.027211588 -0.053889617 0.59145689
-0.026010357 -0.053613186 0.58842295
-0.024895553 -0.053498954 0.58716923
-0.023800611 -0.053419147 0.58629334
-0.022717802 -0.053360421 0.58564878
-0.021643298 -0.053316414 0.5851658
-0.020574797 -0.053283449 0.584804
-0.019511424 -0.053260911 0.58455664
-0.018452361 -0.053248242 0.58441758
-0.017396038 -0.053242419 0.58435369
-0.016341936 -0.053243082 0.58436096
-0.015290405 -0.053252786 0.58446747
-0.01424056 -0.053270243 0.58465904
-0.013191739 -0.053294625 0.58492666
-0.012143712 -0.053326737 0.58527911
-0.011096819 -0.05337042 0.58575851
-0.010050407 -0.053425845 0.58636683
-0.0090041943 -0.053495504 0.58713138
-0.0079582781 -0.053585738 0.58812171
-0.0069134221 -0.053711969 0.58950716
-0.0058794422 -0.053983971 0.59249246
0.033941325 -0.05441387 0.59721076
0.034896996 -0.054224566 0.59513307
0.03589363 -0.05410831 0.59385711
0.036907237 -0.054023638 0.59292781
0.037931535 -0.053958945 0.5922178
0.038964216 -0.053909395 0.59167397
0.040003594 -0.053871505 0.59125811
0.041050337 -0.053845249 0.59096992
0.04210395 -0.0538291 0.59079272
0.043164842 -0.05382283 0.59072387
0.044233937 -0.053826839 0.59076786
0.045310516 -0.053839557 0.59090745
0.046396926 -0.053863097 0.59116584
0.047495719 -0.053899638 0.59156686
0.048610378 -0.05395218 0.59214354
0.049747948 -0.054027341 0.59296846
0.050922103 -0.054138239 0.59418559
0.052191183 -0.054343395 0.59643728
-0.077348992 -0.053549305 0.59959501
-0.075676963 -0.053134888 0.59495479
-0.074033372 -0.052728806 0.59040785
-0.072414719 -0.052328881 0.58592987
-0.070820428 -0.05193498 0.58151931
-0.069249988 -0.051546983 0.5771749
-0.067768209 -0.051214144 0.57344806
-0.066775963 -0.051246669 0.57381225
-0.065782428 -0.051279213 0.57417667
-0.062079325 -0.053442199 0.59839576
-0.06060908 -0.05309999 0.59456402
-0.05915755 -0.05276214 0.59078109
-0.057724386 -0.05242857 0.58704609
-0.056303829 -0.052094195 0.58330208
-0.054896872 -0.05175991 0.57955903
-0.053760722 -0.051672928 0.57858509
-0.052750576 -0.051706009 0.57895553
-0.027092418 -0.052591164 0.58886665
-0.025965493 -0.052460894 0.58740801
-0.024865966 -0.05237725 0.58647144
-0.023779802 -0.052315563 0.58578074
-0.022702737 -0.052269094 0.58526039
-0.021632526 -0.052234635 0.58487457
-0.020568289 -0.05221181 0.58461899
-0.019507913 -0.052196849 0.5844515
-0.018450567 -0.052188747 0.58436078
-0.017396037 -0.05218811 0.58435363
-0.016344378 -0.052196562 0.58444828
-0.015294218 -0.052211296 0.58461326
-0.014245269 -0.052232653 0.5848524
-0.013197843 -0.052263461 0.58519733
-0.012151467 -0.052304141 0.58565283
-0.011105666 -0.052355282 0.58622545
-0.010060336 -0.052419648 0.58694619
-0.0090156645 -0.05250299 0.58787936
-0.0079721436 -0.052616145 0.58914638
-0.0069349045 -0.052811965 0.59133899
0.032816097 -0.053258911 0.59634346
0.03382105 -0.053147361 0.59509444
0.034845896 -0.053072982 0.59426159
0.035879027 -0.053015277 0.59361547
0.036917794 -0.052969009 0.59309739
0.037955016 -0.052923191 0.59258437
0.038983218 -0.052867651 0.59196252
0.04001905 -0.052825145 0.59148657
0.04106231 -0.052794401 0.5911423
0.042112622 -0.052774042 0.59091437
0.043169517 -0.052762743 0.59078783
0.044233542 -0.052760489 0.59076262
0.045307148 -0.052769504 0.59086353
0.046389628 -0.052788198 0.59107286
0.04748299 -0.052818157 0.59140831
0.048590019 -0.052861668 0.59189552
0.049715597 -0.052923057 0.59258288
0.050867863 -0.053009667 0.59355265
0.052075356 -0.053149078 0.59511364
-0.077251352 -0.052401267 0.59883809
-0.075591981 -0.052002996 0.59428668
-0.07396134 -0.051613308 0.58983338
-0.07235495 -0.051229417 0.5854463
-0.070778154 -0.050855417 0.58117223
-0.069224499 -0.050487041 0.57696247
-0.067773722 -0.050183598 0.57349473
-0.066781335 -0.050215423 0.57385844
-0.06578771 -0.050247308 0.5742228
-0.062192515 -0.052458033 0.59948683
-0.06070793 -0.052112117 0.59553373
-0.059242789 -0.051770724 0.59163231
-0.057796728 -0.051433787 0.58778179
-0.056361161 -0.051093765 0.58389604
-0.054943029 -0.05075689 0.5800463
-0.053764988 -0.050633047 0.57863098
-0.052754801 -0.050665502 0.5790019
-0.028177373 -0.051569909 0.58933741
-0.027038287 -0.051425762 0.58769011
-0.025931971 -0.051334716 0.58664966
-0.024842277 -0.051270232 0.5859127
-0.023762951 -0.051222362 0.58536565
-0.022691449 -0.051187687 0.5849694
-0.021625392 -0.051162511 0.58468169
-0.020563589 -0.051145338 0.58448541
-0.019505123 -0.051135052 0.58436787
-0.018450566 -0.051134426 0.58436072
-0.017398285 -0.051140413 0.58442914
-0.016347706 -0.051152501 0.58456731
-0.015298827 -0.051171936 0.5847894
-0.014251865 -0.051201142 0.58512318
-0.01320574 -0.051238269 0.58554745
-0.012160406 -0.051285189 0.58608365
-0.011115815 -0.051344477 0.58676118
-0.01007217 -0.05142108 0.58763659
-0.0090301204 -0.051524803 0.58882195
-0.0079923123 -0.051683623 0.59063691
0.030661635 -0.052178573 0.59629315
0.031671241 -0.052069668 0.59504861
0.032698445 -0.051995885 0.59420544
0.033733666 -0.051939134 0.59355688
0.034774359 -0.051894043 0.5930416
0.035818297 -0.051856339 0.59261072
0.036865044 -0.051824775 0.59224999
0.037914082 -0.051798113 0.59194529
0.038965277 -0.05177578 0.59169006
0.040018402 -0.051757131 0.59147698
0.041073386 -0.051741797 0.59130174
0.042122409 -0.051719919 0.5910517
0.043175872 -0.051704437 0.59087479
0.044236351 -0.051697902 0.59080011
0.045306161 -0.051702324 0.59085065
0.046383176 -0.051714577 0.59099066
0.047470249 -0.051737241 0.59124964
0.048569933 -0.051772345 0.59165084
0.04968584 -0.051822867 0.59222817
0.050825223 -0.051895227 0.59305513
0.052001927 -0.052001927 0.59427446
0.053275928 -0.052199647 0.59653401
-0.077238254 -0.05131213 0.59873658
-0.075588591 -0.050928485 0.59426004
-0.073970862 -0.050555624 0.58990932
-0.072376654 -0.050188191 0.58562189
-0.070808962 -0.049828529 0.58142519
-0.069266409 -0.049476005 0.57731175
-0.067779154 -0.049152821 0.57354069
-0.066786729 -0.049184024 0.57390475
-0.065793037 -0.049215265 0.57426929
-0.062228244 -0.05140594 0.59983122
-0.060731854 -0.051057752 0.59576839
-0.059255589 -0.050714243 0.59176016
-0.057797078 -0.050373603 0.58778536
-0.056352422 -0.050032523 0.5838055
-0.054922543 -0.049691826 0.57983005
-0.053769358 -0.049593095 0.57867801
-0.052759036 -0.049624838 0.5790484
-0.045372754 -0.050710723 0.59171909
-0.029272819 -0.050562143 0.58998537
-0.028114131 -0.050393254 0.58801466
-0.027000878 -0.050295752 0.58687699
-0.025906827 -0.050227523 0.58608085
-0.02482467 -0.050177526 0.58549744
-0.023750704 -0.050140373 0.58506393
-0.022682721 -0.050112989 0.58474439
-0.021619383 -0.050093696 0.58451927
-0.020560443 -0.050083131 0.584396
-0.019505123 -0.05008072 0.58436787
-0.018452121 -0.050084326 0.58440995
-0.017401034 -0.050093882 0.58452147
-0.016352635 -0.050112911 0.5847435
-0.015305617 -0.050139092 0.58504897
-0.014259641 -0.05017281 0.58544242
-0.013214635 -0.050215609 0.58594185
-0.012170677 -0.050270185 0.58657867
-0.011127944 -0.050340701 0.58740145
-0.010086977 -0.050434884 0.58850044
-0.0090501839 -0.050574556 0.59013021
-0.0080814548 -0.051182546 0.59722453
0.028507991 -0.05109923 0.59625238
0.029522048 -0.050992627 0.59500849
0.030551568 -0.050919279 0.59415263
0.031588726 -0.050863203 0.59349829
0.032631565 -0.05081965 0.5929901
0.033676472 -0.050781984 0.59255058
0.034724403 -0.050751049 0.59218961
0.035774395 -0.05072489 0.59188437
0.036826354 -0.050702948 0.59162837
0.037880111 -0.050684657 0.59141493
0.038935579 -0.050669588 0.59123909
0.039992753 -0.050657488 0.59109789
0.041051712 -0.050648216 0.59098971
0.042112533 -0.050641652 0.59091312
0.043175306 -0.050637703 0.59086704
0.041454524 -0.04744795 0.55364734
0.042407677 -0.047396816 0.5530507
0.043401755 -0.047392718 0.55300289
0.04445415 -0.04745106 0.55368364
0.048556916 -0.050691288 0.5914923
0.049665038 -0.050733104 0.59198022
0.050792083 -0.050792083 0.59266841
0.051946394 -0.050875336 0.59363985
0.053157281 -0.05100951 0.59520549
-0.077303484 -0.050274294 0.59924221
-0.075663127 -0.049905468 0.59484601
-0.074051499 -0.049545247 0.59055239
-0.072419465 -0.049160659 0.58596832
-0.070904545 -0.048845351 0.58221
-0.069370419 -0.048507135 0.57817864
-0.067857608 -0.048173722 0.57420456
-0.066792049 -0.048152406 0.57395047
-0.065798275 -0.04818299 0.57431501
-0.062182572 -0.050286774 0.59939098
-0.060677629 -0.049938228 0.59523648
-0.059190542 -0.049592074 0.59111053
-0.057717659 -0.049245343 0.58697766
-0.056262616 -0.048901152 0.58287513
-0.05482522 -0.048559479 0.57880259
-0.053773757 -0.048553005 0.5787254
-0.052763384 -0.048584104 0.57909608
-0.046469338 -0.04967412 0.59208846
-0.045289263 -0.049551785 0.59063029
-0.044151384 -0.049470827 0.58966535
-0.043037713 -0.04941367 0.58898407
-0.030384654 -0.04957496 0.59090656
-0.029191161 -0.049359601 0.58833957
-0.028071141 -0.049256906 0.58711553
-0.026972435 -0.04918503 0.58625877
-0.025886867 -0.049132217 0.58562928
-0.024810297 -0.049092717 0.58515847
-0.023740279 -0.049063243 0.58480716
-0.022675553 -0.049042474 0.58455962
-0.021616085 -0.049031604 0.58443004
-0.020559702 -0.049026985 0.58437496
-0.019505888 -0.049028315 0.58439082
-0.01845488 -0.049037252 0.58449733
-0.017406281 -0.049054064 0.58469772
-0.016359098 -0.049077295 0.58497465
-0.015313164 -0.049107734 0.58533746
-0.014268757 -0.049147937 0.58581668
-0.013225805 -0.049199995 0.58643717
-0.012183906 -0.049265359 0.58721626
-0.011143567 -0.049350083 0.58822614
-0.01010718 -0.049471989 0.58967918
-0.0091014486 -0.049790278 0.59347302
0.028405329 -0.049843315 0.59410518
0.029444287 -0.049787614 0.59344125
0.030489145 -0.049745448 0.59293866
0.031535126 -0.049707908 0.59249121
0.032584522 -0.049678039 0.59213519
0.033635151 -0.049651891 0.59182352
0.034688029 -0.049630564 0.5915693
0.035742272 -0.049612407 0.59135288
0.036798421 -0.049597874 0.59117967
0.037855778 -0.049585737 0.59103501
0.038915258 -0.049576972 0.59093052
0.039975971 -0.049570207 0.59084988
0.041038778 -0.049566317 0.5908035
0.039391983 -0.046372842 0.55273902
0.040296976 -0.046266899 0.55147624
0.041080955 -0.046030469 0.54865813
0.042043284 -0.046000298 0.54829854
0.043032248 -0.045999989 0.54829484
0.044018984 -0.045997366 0.54826355
0.045229312 -0.046223361 0.55095732
0.04635682 -0.04635682 0.55254805
0.050761607 -0.04969294 0.59231281
0.051902816 -0.049762495 0.59314185
0.053082082 -0.049864989 0.59436351
0.05436103 -0.050055206 0.59663081
-0.075810969 -0.048927646 0.5960083
-0.073844679 -0.048344359 0.58890301
-0.07240317 -0.048092619 0.58583647
-0.071068764 -0.047905609 0.58355844
-0.069537237 -0.047578111 0.57956904
-0.068030529 -0.047257848 0.5756678
-0.066797383 -0.047120634 0.57399631
-0.06580355 -0.047150575 0.57436103
-0.064808458 -0.047180559 0.57472628
-0.062043749 -0.049095489 0.59805286
-0.060587917 -0.048792038 0.59435642
-0.05902651 -0.0483911 0.58947241
-0.057544496 -0.048041735 0.58521664
-0.056079004 -0.047693357 0.58097291
-0.05478726 -0.047482289 0.5784018
-0.053778052 -0.047512647 0.57877159
-0.052767579 -0.047543067 0.57914215
-0.047582384 -0.048651654 0.5926463
-0.046374962 -0.048507147 0.590886
-0.045229401 -0.048422065 0.58984959
-0.044110116 -0.048361693 0.58911419
-0.043007869 -0.048317485 0.58857566
-0.041917592 -0.048284825 0.5881778
-0.030273117 -0.048330765 0.58873743
-0.029142275 -0.048217222 0.5873543
-0.028038694 -0.048141908 0.58643687
-0.026949545 -0.048086442 0.58576125
-0.025870234 -0.048044719 0.585253
-0.024798065 -0.048013277 0.58486998
-0.023732767 -0.047992926 0.58462209
-0.022671839 -0.04797994 0.58446389
-0.021614308 -0.047973219 0.584382
-0.0205597 -0.047972634 0.5843749
-0.019508803 -0.047981109 0.58447814
-0.018459758 -0.04799537 0.58465183
-0.017412312 -0.048015773 0.58490038
-0.016366672 -0.048044104 0.58524549
-0.015322939 -0.048082322 0.58571106
-0.014280422 -0.048130311 0.5862956
-0.013239198 -0.048190679 0.58703101
-0.012199828 -0.048268888 0.58798367
-0.011163472 -0.048375048 0.58927685
-0.010140006 -0.048565295 0.59159434
0.02858898 -0.049086738 0.59794629
0.02939445 -0.048634455 0.59243679
0.030445036 -0.048605233 0.59208083
0.031496588 -0.048579484 0.59176719
0.032550283 -0.048558619 0.59151304
0.033604879 -0.04854038 0.59129083
0.034661785 -0.048526496 0.59112173
0.035719249 -0.048514206 0.59097201
0.036779229 -0.048505936 0.59087127
0.037839875 -0.048498992 0.5907867
0.038902804 -0.048495274 0.5907414
0.037521664 -0.045526288 0.55457491
0.038345348 -0.045317229 0.5520283
0.039132427 -0.045076594 0.549097
0.040069055 -0.045015853 0.54835707
0.041053642 -0.045010619 0.54829335
0.042040601 -0.045008175 0.54826355
0.043029059 -0.045007404 0.54825419
0.044018395 -0.045007572 0.54825622
0.045008175 -0.045008175 0.54826355
0.046000406 -0.045011148 0.54829979
0.047273371 -0.045282915 0.55161029
0.051868878 -0.048660494 0.59275401
0.053025246 -0.04874038 0.59372711
0.054239526 -0.048869278 0.59529728
-0.076034978 -0.047993708 0.59776938
-0.0737748 -0.047237106 0.58834577
-0.072387427 -0.047025412 0.5857091
-0.07117679 -0.046923958 0.58444548
-0.06977354 -0.046690561 0.5815385
-0.068269521 -0.046381585 0.57769012
-0.06680274 -0.046088714 0.57404238
-0.065808848 -0.04611801 0.57440728
-0.064813659 -0.046147328 0.57477242
-0.063326977 -0.0481718 0.59998757
-0.061785139 -0.047816325 0.59556007
-0.060571507 -0.04770676 0.59419543
-0.058731593 -0.047091097 0.58652723
-0.0572378 -0.046735451 0.58209759
-0.0557997 -0.046412833 0.57807934
-0.054791708 -0.046442494 0.57844877
-0.053782437 -0.046472203 0.5788188
-0.048704043 -0.047633626 0.59328449
-0.047462665 -0.047462665 0.59115517
-0.046308096 -0.04737265 0.59003401
-0.045182992 -0.04730925 0.58924437
-0.044076487 -0.047262739 0.58866507
-0.042982809 -0.047228027 0.5882327
-0.041900318 -0.047204155 0.58793539
-0.040826589 -0.047189172 0.58774877
-0.03023693 -0.047212046 0.58803368
-0.029105596 -0.047098145 0.58661503
-0.028012702 -0.047040198 0.58589327
-0.026930517 -0.046996392 0.58534765
-0.025857374 -0.046965435 0.58496207
-0.024790216 -0.046943177 0.58468485
-0.023727719 -0.046928156 0.58449775
-0.022668939 -0.046919432 0.58438909
-0.021614308 -0.046918862 0.584382
-0.020562658 -0.046925038 0.58445895
-0.019513069 -0.04693684 0.58460593
-0.01846532 -0.046954673 0.58482802
-0.017420378 -0.046982232 0.58517128
-0.016376751 -0.047017124 0.58560586
-0.015334518 -0.047061108 0.58615369
-0.014293824 -0.047116682 0.58684587
-0.0132552 -0.047188513 0.58774054
-0.012219938 -0.047285844 0.58895284
-0.01119406 -0.04744149 0.59089142
0.02944636 -0.047649566 0.59348303
0.030412946 -0.047486879 0.59145677
0.031468142 -0.047468893 0.59123272
0.032525562 -0.047455329 0.5910638
0.033583183 -0.047442909 0.59090912
0.034643628 -0.04743512 0.59081209
0.035704233 -0.047428008 0.59072351
0.036767382 -0.047424596 0.59068102
0.03783153 -0.047422621 0.5906564
0.036628399 -0.044656541 0.55620444
0.037339605 -0.044309665 0.55188406
0.038100358 -0.044038076 0.54850137
0.039080024 -0.044026859 0.54836166
0.040066283 -0.044023447 0.54831916
0.041052382 -0.044020027 0.54827654
0.042040076 -0.044018432 0.5482567
0.043027908 -0.044017054 0.54823953
0.044017166 -0.044017166 0.5482409
0.045008089 -0.044018902 0.54826254
0.045998391 -0.044019964 0.54827577
0.046992142 -0.044024218 0.54832876
0.048272587 -0.044291344 0.55165583
0.052980717 -0.047629129 0.59322852
0.054162569 -0.04772741 0.59445262
0.055446479 -0.047910064 0.59672761
-0.073727064 -0.046145719 0.58796507
-0.072370388 -0.045957837 0.58557117
-0.071167573 -0.045863546 0.58436978
-0.070018806 -0.045801774 0.5835827
-0.068585895 -0.045549408 0.58036721
-0.067105897 -0.045257464 0.5766474
-0.065814115 -0.045085259 0.57445323
-0.064818881 -0.045113944 0.57481873
-0.063822374 -0.045142651 0.57518452
-0.06282451 -0.045171343 0.57555008
-0.062934667 -0.046797574 0.59627068
-0.061777789 -0.04673624 0.5954892
-0.05971941 -0.045978662 0.58583653
-0.058168091 -0.045591205 0.58089978
-0.056810878 -0.045344461 0.57775587
-0.055804182 -0.045373492 0.57812577
-0.0547961 -0.045402482 0.57849514
-0.05378677 -0.045431543 0.57886541
-0.049923506 -0.046702635 0.595061
-0.04855952 -0.046425037 0.591524
-0.047387689 -0.0463228 0.59022135
-0.046256352 -0.046256352 0.58937472
-0.04514543 -0.046207674 0.58875448
-0.044049613 -0.046172485 0.58830613
-0.042965092 -0.046147693 0.58799022
-0.041888803 -0.046130706 0.5877738
-0.040819205 -0.046120401 0.58764249
-0.039755844 -0.04611678 0.58759636
-0.038699619 -0.046121463 0.58765602
-0.029524574 -0.046702508 0.59505939
-0.027992848 -0.045950525 0.58547801
-0.026917124 -0.045917444 0.58505654
-0.025847893 -0.0458932 0.58474761
-0.024783721 -0.04587625 0.58453166
-0.023724094 -0.045866583 0.58440846
-0.022668939 -0.045865063 0.58438909
-0.021616446 -0.045869041 0.58443981
-0.020566214 -0.045878477 0.58456004
-0.019518953 -0.045895919 0.58478224
-0.018473811 -0.045920618 0.58509696
-0.017430188 -0.045952316 0.58550084
-0.016388105 -0.045992423 0.58601189
-0.015347788 -0.046043362 0.58666092
-0.014309702 -0.046109039 0.58749771
-0.013275286 -0.046197996 0.58863115
-0.012247944 -0.046329178 0.59030265
-0.0005324721 -0.046325073 0.59025031
0.03038976 -0.046384372 0.59100586
0.031447597 -0.046371881 0.59084672
0.032508455 -0.046364516 0.5907529
0.033569045 -0.046357252 0.59066033
0.034632403 -0.046354141 0.5906207
0.035696503 -0.046352178 0.59059566
0.036762647 -0.046352901 0.5906049
0.037830934 -0.046356212 0.5906471
0.036376536 -0.043352861 0.55237991
0.037234887 -0.043192469 0.5503363
0.03809157 -0.043038525 0.54837483
0.039076895 -0.043034051 0.54831779
0.04006394 -0.04303164 0.54828709
0.04105141 -0.043029793 0.54826355
0.042039778 -0.043028951 0.54825282
0.043027908 -0.043027908 0.54823953
0.044017151 -0.043028001 0.54824072
0.045008071 -0.043029696 0.5482623
0.045997366 -0.043029793 0.54826355
0.046989519 -0.043032505 0.54829812
0.047986131 -0.043039106 0.54838222
0.049354911 -0.043372497 0.55263013
0.05410441 -0.04660479 0.59381431
0.055322118 -0.046728391 0.59538919
-0.073679149 -0.045055594 0.58758295
-0.07235533 -0.044891991 0.58544934
-0.071159974 -0.044804428 0.58430737
-0.070014425 -0.04474606 0.58354622
-0.068900347 -0.04470633 0.58302808
-0.067521431 -0.044490866 0.58021814
-0.066061728 -0.044214543 0.57661456
-0.064824089 -0.04408038 0.57486486
-0.063827448 -0.044108402 0.5752303
-0.062829576 -0.044136479 0.57559651
-0.061830446 -0.044164602 0.57596326
-0.060829975 -0.044192716 0.57632989
-0.059828315 -0.044220928 0.57669783
-0.058825333 -0.044249143 0.57706577
-0.057820994 -0.044277336 0.57743347
-0.056815479 -0.044305649 0.57780266
-0.055808693 -0.044334006 0.5781725
-0.054800536 -0.04436234 0.57854199
-0.049657721 -0.045386091 0.59189302
-0.048473544 -0.045277487 0.59047669
-0.047332931 -0.045205608 0.58953929
-0.046217367 -0.045154899 0.58887798
-0.045117904 -0.045117904 0.58839554
-0.04403007 -0.045091037 0.58804512
-0.042951107 -0.045072149 0.58779883
-0.04187927 -0.045059975 0.58764005
-0.040815823 -0.045056429 0.58759379
-0.03975793 -0.045058988 0.58762717
-0.038704541 -0.04506693 0.58773077
-0.037655819 -0.045080911 0.5879131
-0.026905797 -0.044842996 0.58481038
-0.025839848 -0.044824224 0.58456558
-0.024779936 -0.044814777 0.58444238
-0.023723595 -0.044811238 0.58439618
-0.022670165 -0.044813115 0.58442068
-0.021619678 -0.044821281 0.58452719
-0.020572416 -0.044837318 0.58473635
-0.019526977 -0.044859271 0.58502263
-0.018483248 -0.044887885 0.58539581
-0.017441323 -0.044924621 0.58587486
-0.016401965 -0.044973131 0.5865075
-0.015364538 -0.045033991 0.58730119
-0.014329988 -0.045112923 0.58833057
-0.013302803 -0.045229528 0.58985126
-0.0026624801 -0.045262162 0.59027684
-0.0015936694 -0.045153964 0.58886582
-0.00053039601 -0.045083664 0.58794898
0.00052975729 -0.045029372 0.58724093
0.031434461 -0.045286939 0.59059995
0.03249786 -0.045283902 0.59056038
0.033561941 -0.045281984 0.59053534
0.034627706 -0.045282386 0.59054059
0.03569572 -0.045285616 0.59058273
0.036763895 -0.045288857 0.59062499
0.0354928 -0.04249138 0.5541423
0.036315687 -0.04228539 0.55145591
0.037103288 -0.042050391 0.54839122
0.038087752 -0.042044923 0.54831988
0.039074712 -0.042042412 0.54828715
0.040062353 -0.042040739 0.54826534
0.04105141 -0.042040601 0.54826355
0.042040322 -0.042040322 0.54825991
0.043028463 -0.042039305 0.54824662
0.044017635 -0.042039312 0.54824674
0.045008056 -0.042040493 0.54826212
0.045997366 -0.042040601 0.54826355
0.0469875 -0.042041447 0.54827458
0.047981523 -0.042045668 0.54832959
0.049222618 -0.042261843 0.55114883
0.054058943 -0.045495149 0.5933153
0.055243373 -0.045589194 0.59454173
0.056532286 -0.04576423 0.59682447
-0.073643692 -0.043974292 0.58730018
-0.072341889 -0.043827567 0.58534062
-0.071152814 -0.043745805 0.5842486
-0.070010044 -0.043690477 0.58350968
-0.068898059 -0.04365297 0.58300877
-0.067809239 -0.043629203 0.58269131
-0.066626556 -0.043543339 0.58154458
-0.065190859 -0.04328673 0.57811743
-0.063832588 -0.043074023 0.57527661
-0.062834643 -0.043101449 0.57564288
-0.061835364 -0.043128867 0.57600909
-0.060834933 -0.043156404 0.57637686
-0.059833094 -0.043183886 0.5767439
-0.058830094 -0.043211486 0.5771125
-0.057825703 -0.043239038 0.57748049
-0.056820065 -0.043266658 0.57784933
-0.050766729 -0.044354092 0.5923726
-0.049560335 -0.044231266 0.59073222
-0.048411716 -0.044155739 0.58972353
-0.04729028 -0.044102173 0.58900809
-0.046186518 -0.044063002 0.58848494
-0.045095239 -0.044034176 0.58809996
-0.0440135 -0.0440135 0.58782381
-0.042940754 -0.04400102 0.58765715
-0.041875787 -0.043996081 0.58759117
-0.040816136 -0.043996613 0.58759832
-0.039761227 -0.044002425 0.58767593
-0.038712937 -0.044016078 0.58785826
-0.037669145 -0.044035759 0.58812112
-0.036629591 -0.044061679 0.5884673
-0.025891963 -0.043857813 0.58574456
-0.024778279 -0.043757387 0.58440328
-0.023723813 -0.043757256 0.58440155
-0.022673551 -0.043765228 0.584508
-0.021625716 -0.043778889 0.58469045
-0.020579876 -0.043798197 0.58494836
-0.019536022 -0.043824047 0.58529359
-0.018495042 -0.043859672 0.58576936
-0.017455934 -0.043904319 0.58636564
-0.016418977 -0.043960489 0.58711582
-0.015385116 -0.044033267 0.5880878
-0.014356214 -0.044132065 0.58940732
-0.013352431 -0.044330072 0.5920518
-0.00479268 -0.044199161 0.59030342
-0.0037187026 -0.044093188 0.58888811
-0.0026520689 -0.044024345 0.58796865
-0.0015893211 -0.043971218 0.58725911
-0.00052927015 -0.04392942 0.58670092
0.00052885659 -0.043895096 0.5862425
0.031427812 -0.04421201 0.59047502
0.03249323 -0.044212099 0.59047621
0.03356098 -0.044215258 0.59051841
0.034628879 -0.044218414 0.59056056
0.035700701 -0.04422624 0.5906651
0.035253197 -0.042406019 0.56635505
0.03543371 -0.041422509 0.55321974
0.036277451 -0.041246962 0.55087525
0.037101232 -0.041058693 0.54836082
0.038086303 -0.041054066 0.54829901
0.039073493 -0.041051898 0.54827005
0.040062219 -0.04105141 0.54826355
0.04105141 -0.04105141 0.54826355
0.042040601 -0.04105141 0.54826355
0.043029021 -0.041050676 0.54825372
0.044018343 -0.041050814 0.54825556
0.045008041 -0.041051291 0.54826194
0.045997858 -0.041051853 0.54826945
0.046988256 -0.041052897 0.5482834
0.04798042 -0.041055411 0.54831696
0.048980571 -0.041064519 0.54843861
0.050472364 -0.041477289 0.55395138
0.055183902 -0.044468582 0.59390169
0.056405038 -0.044586841 0.5954811
-0.073618047 -0.042899728 0.58709568
-0.072329938 -0.042764414 0.58524388
-0.071145043 -0.042687029 0.58418483
-0.070004508 -0.042634323 0.58346355
-0.068894908 -0.042599142 0.58298206
-0.067808434 -0.04257739 0.5826844
-0.066740103 -0.042566523 0.58253568
-0.065687038 -0.0425652 0.58251756
-0.064648069 -0.042573117 0.58262593
-0.063307852 -0.042379633 0.57997805
-0.061975334 -0.042184893 0.57731295
-0.060839802 -0.042119861 0.57642299
-0.059837908 -0.042146701 0.57679027
-0.058834847 -0.04217365 0.57715911
-0.058741327 -0.042865295 0.58662444
-0.057873376 -0.043006822 0.5885613
-0.051885933 -0.043327428 0.59294891
-0.050648179 -0.043184239 0.59098929
-0.049491171 -0.043105215 0.58990782
-0.048363667 -0.043048978 0.58913821
-0.047255456 -0.043007776 0.58857435
-0.046160612 -0.042977121 0.58815485
-0.045076661 -0.042955406 0.58785766
-0.044002891 -0.04294258 0.58768213
-0.042935748 -0.042935748 0.58758861
-0.041874241 -0.042934347 0.58756948
-0.040818904 -0.042939365 0.58763814
-0.039769858 -0.042951446 0.58780348
-0.038724724 -0.04296853 0.58803725
-0.037684053 -0.042991664 0.58835387
-0.036649242 -0.043023024 0.58878303
-0.035620131 -0.043063141 0.58933204
-0.034596793 -0.043112926 0.59001338
-0.025389543 -0.043756448 0.59882015
-0.023727357 -0.042709246 0.58448887
-0.022678848 -0.04272062 0.58464456
-0.021632506 -0.042737391 0.58487403
-0.020589408 -0.042762615 0.58521926
-0.019548394 -0.042795133 0.58566427
-0.018509388 -0.04283601 0.58622372
-0.017472753 -0.042887665 0.58693063
-0.016439358 -0.042954452 0.58784461
-0.01541117 -0.043044992 0.58908367
-0.014398567 -0.043195702 0.59114617
-0.0069230767 -0.043136094 0.59033042
-0.0058438974 -0.043032337 0.58891046
-0.0047738831 -0.04296495 0.58798826
-0.0037085314 -0.042913005 0.58727741
-0.0026464327 -0.042872209 0.5867191
-0.0015866159 -0.042838629 0.58625954
-0.00052849791 -0.042808328 0.58584487
0.00052820996 -0.042785008 0.58552569
0.0015837979 -0.04276254 0.58521825
0.032494329 -0.043148205 0.59049618
0.033565614 -0.043155789 0.59059995
0.034637529 -0.043163691 0.59070808
0.035333354 -0.042716444 0.5845874
0.034909017 -0.040980153 0.56082571
0.035409331 -0.04039656 0.5528391
0.036253225 -0.040226184 0.55050743
0.037099276 -0.040067215 0.54833192
0.038085237 -0.040063694 0.5482837
0.039073031 -0.040062219 0.54826355
0.040062219 -0.040062219 0.54826355
0.04105141 -0.040062219 0.54826355
0.042040601 -0.040062219 0.54826355
0.04302958 -0.040062025 0.54826087
0.044019025 -0.04006226 0.54826409
0.045008533 -0.040062539 0.5482679
0.045998659 -0.040063348 0.54827899
0.046989009 -0.040064313 0.54829216
0.04798102 -0.040066622 0.54832381
0.04897707 -0.040072147 0.54839939
0.050390664 -0.040412314 0.55305469
0.055137482 -0.043360543 0.59340209
0.056324508 -0.043450333 0.5946309
0.057618525 -0.043617763 0.59692222
-0.073591419 -0.041825339 0.58688331
-0.072319165 -0.041702293 0.58515674
-0.071136713 -0.041628152 0.5841164
-0.069999032 -0.041578371 0.58341789
-0.068892196 -0.041545674 0.58295912
-0.067807011 -0.041525226 0.58267218
-0.066740572 -0.04151579 0.5825398
-0.065689623 -0.041515842 0.58254051
-0.064652093 -0.041524515 0.58266222
-0.063627914 -0.041542191 0.58291024
-0.06261687 -0.041569181 0.58328897
-0.061620791 -0.041607201 0.58382243
-0.060641423 -0.041658022 0.58453554
-0.059683513 -0.041725643 0.58548439
-0.058756489 -0.04181768 0.58677584
-0.057897869 -0.041962676 0.58881038
-0.053042527 -0.042326864 0.59392059
-0.051744193 -0.042142179 0.5913291
-0.050571214 -0.042053957 0.59009123
-0.049437549 -0.041995339 0.58926868
-0.048324712 -0.041952223 0.5886637
-0.047226653 -0.041920286 0.58821559
-0.046141591 -0.041898686 0.5879125
-0.04506512 -0.041884053 0.58770716
-0.043995697 -0.041875422 0.58758605
-0.042932246 -0.041872188 0.58754069
-0.041877072 -0.041877072 0.58760923
-0.040826578 -0.041887011 0.58774865
-0.039779998 -0.041901596 0.58795333
-0.038739137 -0.041923176 0.58825612
-0.037704267 -0.041952636 0.58866948
-0.036674302 -0.041989416 0.5891856
-0.035650089 -0.042035177 0.58982772
-0.034633495 -0.042093016 0.59063929
-0.033628069 -0.042168532 0.59169888
-0.024345703 -0.042740233 0.5997209
-0.022685688 -0.041678354 0.58482087
-0.021642528 -0.041701455 0.585145
-0.020601368 -0.041730974 0.58555919
-0.019562332 -0.041768223 0.58608186
-0.018525867 -0.041815527 0.58674562
-0.01749273 -0.041876536 0.58760166
-0.01646501 -0.041959219 0.58876187
-0.015447574 -0.042081323 0.5904752
-0.0090536699 -0.042072937 0.59035754
-0.0079692528 -0.041971397 0.58893275
-0.0068958397 -0.041905489 0.58800793
-0.005827873 -0.041854724 0.58729565
-0.0047637266 -0.041814931 0.58673728
-0.0037022112 -0.041782096 0.58627653
-0.0026425661 -0.041752543 0.58586186
-0.0015846735 -0.041729737 0.58554184
-0.00052794721 -0.041707829 0.5852344
0.00052773982 -0.041691445 0.58500451
0.0015826258 -0.04167581 0.58478516
0.032502402 -0.042093277 0.59064293
0.033576213 -0.042103507 0.59078646
0.034652475 -0.042116087 0.59096301
0.034941431 -0.041199598 0.57810307
0.034817986 -0.039864071 0.55936325
0.035405915 -0.039395314 0.55278575
0.036257152 -0.039237194 0.55056703
0.037098724 -0.039077323 0.54832381
0.038084954 -0.039074171 0.54827958
0.039073028 -0.039073028 0.54826349
0.040062219 -0.039073031 0.54826355
0.04105141 -0.039073031 0.54826355
0.042040601 -0.039073031 0.54826355
0.043030143 -0.039073348 0.54826802
0.044019528 -0.039073516 0.54827034
0.045009051 -0.039073791 0.54827422
0.04599927 -0.039074648 0.54828626
0.046989758 -0.039075695 0.54830092
0.047981415 -0.039077647 0.54832834
0.04898157 -0.039086305 0.54844981
0.050381746 -0.039407507 0.55295682
0.055101123 -0.042262025 0.59301078
0.056263674 -0.042331714 0.59398866
0.0574883 -0.042444631 0.59557307
-0.073563822 -0.040751182 0.58666319
-0.072306804 -0.04063959 0.58505672
-0.071128376 -0.040569518 0.58404791
-0.069995195 -0.040523533 0.58338594
-0.068890318 -0.040492784 0.58294326
-0.067806818 -0.040473837 0.58267051
-0.066740841 -0.040464919 0.58254212
-0.0656913 -0.040465839 0.58255535
-0.064655729 -0.04047554 0.58269501
-0.063633323 -0.040493932 0.58295977
-0.062623009 -0.040520769 0.58334613
-0.061628371 -0.040558841 0.58389425
-0.060650792 -0.040609661 0.58462584
-0.05969492 -0.040677067 0.58559626
-0.058772262 -0.04076995 0.58693337
-0.057926983 -0.040920895 0.58910644
-0.052844003 -0.041100889 0.59169769
-0.051656168 -0.04100541 0.59032315
-0.050513115 -0.040942211 0.58941329
-0.049395878 -0.040897664 0.588772
-0.048295259 -0.04086522 0.58830494
-0.047206726 -0.040841773 0.5879674
-0.046127435 -0.04082543 0.58773214
-0.045055646 -0.040815115 0.5875836
-0.043992046 -0.040811896 0.58753729
-0.042935144 -0.040814891 0.58758038
-0.041883089 -0.040822759 0.58769363
-0.040835492 -0.040835492 0.58787698
-0.039794687 -0.040855881 0.58817047
-0.038758885 -0.040882658 0.58855599
-0.037727948 -0.040916223 0.58903921
-0.036702719 -0.040958107 0.58964217
-0.035684966 -0.04101108 0.59040475
-0.034678012 -0.041080106 0.59139848
-0.033689216 -0.041175708 0.59277481
-0.032756012 -0.04134775 0.59525156
-0.021653963 -0.040667199 0.58545417
-0.020614767 -0.04070095 0.58594006
-0.019578885 -0.040745247 0.58657777
-0.018546086 -0.040801391 0.58738601
-0.017517701 -0.040874634 0.58844048
-0.01650029 -0.040984593 0.59002346
-0.011184458 -0.041009679 0.5903846
-0.010094769 -0.040910382 0.5889551
-0.0090179369 -0.040845953 0.58802754
-0.0079473453 -0.040796373 0.58731377
-0.0068811513 -0.040757589 0.58675545
-0.0058179293 -0.040725507 0.58629358
-0.0047567571 -0.040696699 0.58587885
-0.0036976738 -0.040674411 0.585558
-0.0026398089 -0.040653057 0.58525062
-0.0015832616 -0.04063705 0.58502012
-0.000527556 -0.040621813 0.58480078
0.00052740652 -0.040610302 0.58463508
0.0015818349 -0.040600426 0.58449292
0.0026358687 -0.04059238 0.58437705
0.033593237 -0.041058403 0.59108603
0.034674402 -0.041075829 0.59133691
0.034816518 -0.040013015 0.57603639
0.034888223 -0.038933232 0.56049162
0.035428304 -0.038422246 0.55313534
0.036283448 -0.03827158 0.55096632
0.037099753 -0.038089082 0.54833901
0.038083851 -0.038083851 0.54826373
0.039073341 -0.038084142 0.5482679
0.040062215 -0.038083836 0.54826349
0.041051418 -0.038083844 0.54826361
0.042041227 -0.038084406 0.54827172
0.043030817 -0.038084745 0.5482766
0.044020034 -0.038084749 0.54827666
0.045009568 -0.038085021 0.54828054
0.045999806 -0.038085859 0.54829264
0.046990633 -0.038087144 0.54831111
0.04798238 -0.038089108 0.54833937
0.048989732 -0.038103126 0.54854119
0.050443262 -0.038456742 0.55363196
0.055067953 -0.041167304 0.59265381
0.056216333 -0.04122531 0.59348887
0.05740596 -0.041310832 0.59472007
0.058705136 -0.041470602 0.59702015
-0.073539197 -0.039679423 0.58646685
-0.072294451 -0.039577253 0.58495677
-0.071121484 -0.039511934 0.58399135
-0.069991373 -0.039468817 0.58335406
-0.068888441 -0.039439946 0.58292735
-0.067806631 -0.03942246 0.5826689
-0.066742182 -0.039414674 0.5825538
-0.065692969 -0.039415784 0.5825702
-0.064658783 -0.039426085 0.58272249
-0.06363783 -0.039444935 0.58300108
-0.062629148 -0.039472152 0.58340335
-0.061635979 -0.039510243 0.58396631
-0.060660165 -0.039560977 0.5847162
-0.05970633 -0.039628096 0.5857082
-0.058789015 -0.039722309 0.58710068
-0.057960007 -0.039880738 0.58944231
-0.053948127 -0.04006049 0.59209907
-0.052744053 -0.039957616 0.59057856
-0.051592667 -0.039891236 0.58959746
-0.050469302 -0.039844185 0.58890206
-0.049364191 -0.03980983 0.58839428
-0.048272051 -0.039784659 0.58802223
-0.047189847 -0.039766725 0.58775717
-0.046116326 -0.039755452 0.58759058
-0.045051903 -0.039751679 0.58753479
-0.043993112 -0.039752811 0.58755153
-0.042939406 -0.039758708 0.58763868
-0.041892178 -0.039771058 0.58782119
-0.040850054 -0.039789014 0.58808661
-0.039813098 -0.039813098 0.58844256
-0.038781285 -0.039843787 0.58889616
-0.037755635 -0.039882712 0.58947146
-0.036737457 -0.03993202 0.59020025
-0.03572863 -0.039994732 0.59112716
-0.034735262 -0.04007915 0.59237486
-0.033779517 -0.040213712 0.59436369
-0.020984432 -0.040354677 0.59644717
-0.019599674 -0.03972907 0.58720064
-0.018571533 -0.039796144 0.58819199
-0.017551385 -0.039889511 0.58957195
-0.016570967 -0.040091049 0.59255069
-0.013315441 -0.039946325 0.59041166
-0.012220448 -0.039849289 0.58897746
-0.01114018 -0.039786357 0.58804733
-0.010066949 -0.039737955 0.58733195
-0.0089987079 -0.03970018 0.58677363
-0.0079337703 -0.039668851 0.58631057
-0.0068710712 -0.039640795 0.5858959
-0.0058107912 -0.039619029 0.58557421
-0.0047517875 -0.039598227 0.58526677
-0.0036943762 -0.039582603 0.5850358
-0.0026378508 -0.039567761 0.58481646
-0.0015822606 -0.039556514 0.58465022
-0.00052729197 -0.039546896 0.58450806
0.00052718696 -0.039539024 0.58439171
0.0015813644 -0.039534111 0.58431911
0.0026352801 -0.039529204 0.58424658
0.03361797 -0.040021393 0.5915212
0.03470448 -0.04004363 0.59184986
0.034866005 -0.03902911 0.57685512
0.035055459 -0.038103756 0.5631783
0.035474293 -0.037472844 0.55385333
0.036323436 -0.037318598 0.55157357
0.037103459 -0.037103459 0.54839379
0.038085103 -0.037095878 0.54828173
0.039073028 -0.037094645 0.54826349
0.040062215 -0.037094645 0.54826349
0.041052353 -0.037095498 0.54827613
0.042042069 -0.037095942 0.54828268
0.043031491 -0.037096113 0.54828519
0.044020619 -0.037096027 0.54828393
0.045010086 -0.037096225 0.54828686
0.046000384 -0.037097085 0.54829955
0.046991654 -0.037098672 0.54832304
0.047984555 -0.037101459 0.54836422
0.049237266 -0.037300959 0.55131286
0.053931098 -0.040047843 0.59191215
0.055044763 -0.04008114 0.59240425
0.056179158 -0.04012797 0.59309644
0.057343755 -0.040194221 0.59407562
0.058571883 -0.040301755 0.59566498
-0.073521756 -0.038612146 0.58632773
-0.072282106 -0.038515281 0.58485687
-0.071115881 -0.038455255 0.58394533
-0.069989055 -0.038415045 0.58333474
-0.068887986 -0.038387965 0.58292353
-0.067807205 -0.038371522 0.58267385
-0.066743515 -0.038364381 0.58256543
-0.065695539 -0.038366195 0.58259296
-0.064661838 -0.038376536 0.58275002
-0.063642219 -0.038395721 0.58304131
-0.062635295 -0.038423333 0.58346063
-0.061643653 -0.038461424 0.58403903
-0.060669545 -0.038511973 0.58480662
-0.059718378 -0.038579129 0.5858264
-0.058806486 -0.038674537 0.58727515
-0.057993472 -0.038839664 0.58978266
-0.055069931 -0.039030146 0.59267509
-0.053833023 -0.038909018 0.59083575
-0.052672863 -0.038839586 0.58978146
-0.051543199 -0.038790245 0.58903217
-0.050433449 -0.038754124 0.58848369
-0.049337577 -0.038727347 0.58807707
-0.048252348 -0.038707927 0.5877822
-0.047178477 -0.038696952 0.58761555
-0.046111748 -0.038691465 0.58753222
-0.045050975 -0.038690839 0.58752269
-0.043996088 -0.038695354 0.58759129
-0.042948738 -0.038706888 0.58776641
-0.041905113 -0.038722448 0.58800268
-0.040867236 -0.038744263 0.58833396
-0.03983498 -0.038772713 0.58876598
-0.038809106 -0.038809106 0.58931857
-0.037790257 -0.03885477 0.59001201
-0.036780316 -0.038912509 0.5908888
-0.035783537 -0.038988031 0.59203559
-0.034818429 -0.039103772 0.59379315
-0.019938776 -0.039338667 0.59736001
-0.01860382 -0.038802255 0.58921456
-0.017605837 -0.038946249 0.5914011
-0.015446621 -0.038882874 0.59043878
-0.014346277 -0.038788084 0.58899939
-0.013262566 -0.038726695 0.58806717
-0.012186685 -0.038679477 0.58735019
-0.011116395 -0.038642704 0.58679181
-0.010049734 -0.038612135 0.58632761
-0.0089855073 -0.038584825 0.58591288
-0.007924024 -0.038563587 0.58559036
-0.0068638823 -0.03854334 0.58528292
-0.0058056032 -0.038528092 0.58505142
-0.0047482583 -0.038513649 0.58483207
-0.003692037 -0.038502671 0.58466536
-0.0026365279 -0.038493309 0.5845232
-0.0015816008 -0.03848562 0.58440644
-0.00052713469 -0.038480829 0.58433372
0.00052706921 -0.038476054 0.58426118
0.0015811801 -0.038475383 0.58425099
0.0026352683 -0.038474914 0.58424389
0.0036895319 -0.038476549 0.58426869
0.033746924 -0.039103579 0.59379017
0.034744695 -0.039020963 0.59253567
0.035035338 -0.03817283 0.57965672
0.035268467 -0.037313014 0.56660038
0.035579521 -0.036581758 0.55549622
0.036381021 -0.036381021 0.55244797
0.037244204 -0.036251023 0.55047399
0.038088121 -0.036109518 0.54832518
0.039073713 -0.036106091 0.54827315
0.04006261 -0.036105808 0.54826885
0.041053273 -0.036107097 0.5482884
0.042042911 -0.03610744 0.54829365
0.043032166 -0.036107447 0.54829377
0.044021312 -0.036107369 0.54829258
0.045010604 -0.03610741 0.54829317
0.046001393 -0.03610862 0.54831159
0.046992671 -0.036110155 0.5483349
0.047991157 -0.036117058 0.54843968
0.049351692 -0.03639064 0.55259407
0.053916607 -0.038969431 0.59175313
0.055021796 -0.03899603 0.59215707
0.056145336 -0.039034378 0.59273934
0.057295501 -0.039089456 0.59357572
-0.07350371 -0.037545063 0.58618385
-0.072270483 -0.037454043 0.58476281
-0.071110703 -0.037398964 0.58390284
-0.069985725 -0.037360802 0.58330703
-0.068886645 -0.037335508 0.58291215
-0.067807846 -0.037320599 0.58267933
-0.066745967 -0.037314672 0.58258682
-0.065698467 -0.037316728 0.58261895
-0.064665474 -0.037327226 0.5827828
-0.063646622 -0.037346363 0.5830816
-0.062641442 -0.037374303 0.58351785
-0.061651334 -0.037412349 0.58411181
-0.060678925 -0.037462641 0.58489704
-0.059731279 -0.037530273 0.58595294
-0.058823962 -0.037626136 0.58744967
-0.058036417 -0.037803538 0.59021938
-0.056212131 -0.038010109 0.59344453
-0.05492676 -0.037862133 0.59113425
-0.053753667 -0.037787233 0.58996481
-0.052617598 -0.037735853 0.58916265
-0.051503014 -0.037698083 0.58857292
-0.050403312 -0.037669841 0.58813202
-0.049317248 -0.037650805 0.58783478
-0.048240718 -0.037638362 0.58764052
-0.047171585 -0.037631266 0.58752972
-0.046108741 -0.037628975 0.58749396
-0.045054022 -0.037633359 0.58756244
-0.044005085 -0.037642904 0.58771145
-0.042960107 -0.037656389 0.58792198
-0.041921467 -0.037676256 0.58823216
-0.040888987 -0.037702832 0.58864707
-0.039862428 -0.037736431 0.58917165
-0.038842544 -0.037778363 0.58982635
-0.037831359 -0.037831359 0.59065372
-0.036832787 -0.037900403 0.59173173
-0.035857346 -0.037998084 0.59325677
-0.017577995 -0.037819322 0.59046584
-0.016472267 -0.037726805 0.58902138
-0.015385098 -0.037666965 0.58808708
-0.014306551 -0.037620932 0.58736837
-0.013234214 -0.037585165 0.58680999
-0.012165823 -0.037555367 0.58634472
-0.011100066 -0.037528794 0.58592987
-0.010037376 -0.037508089 0.58560658
-0.0089760935 -0.037488393 0.58529907
-0.0079169441 -0.037473533 0.58506709
-0.0068587787 -0.037459485 0.58484775
-0.005801924 -0.037448782 0.58468068
-0.0047458732 -0.037439667 0.58453834
-0.003690494 -0.037432153 0.58442104
-0.0026357395 -0.0374275 0.58434838
-0.0015812473 -0.037422854 0.58427584
-0.00052707287 -0.037422173 0.58426523
0.00052706641 -0.037421715 0.58425808
0.0015812652 -0.037423279 0.58428246
0.0026357006 -0.037426949 0.5843398
0.0036903585 -0.037430778 0.58439958
0.034798864 -0.038011067 0.59345949
0.035254262 -0.037358996 0.58327883
0.035548132 -0.036578514 0.57109332
0.035894308 -0.035894308 0.56041098
0.03646617 -0.035467096 0.55374098
0.037336476 -0.035345197 0.5518378
0.038225155 -0.035246573 0.55029798
0.039075386 -0.035118386 0.54829663
0.040064264 -0.035118058 0.5482915
0.041054025 -0.035118505 0.54829848
0.04204328 -0.035118505 0.54829848
0.043032534 -0.035118505 0.54829848
0.044021789 -0.035118505 0.54829848
0.045011383 -0.035118774 0.54830265
0.046002164 -0.035119932 0.54832077
0.046996351 -0.03512359 0.54837787
0.048272952 -0.035333809 0.55166
0.052821308 -0.037881948 0.5914436
0.053907793 -0.037895579 0.59165639
0.055006851 -0.037917342 0.59199619
-0.074969411 -0.036687158 0.58939219
-0.073485687 -0.036478505 0.58604008
-0.072262153 -0.036394808 0.58469546
-0.071105078 -0.036342595 0.58385664
-0.069982395 -0.036306657 0.58327925
-0.068885207 -0.03628305 0.58289999
-0.067808054 -0.036269423 0.58268112
-0.066747665 -0.036264479 0.58260167
-0.065702036 -0.036267526 0.5826506
-0.064670153 -0.036278378 0.58282495
-0.063651495 -0.036297135 0.58312631
-0.062647581 -0.036325067 0.58357507
-0.061659008 -0.036363006 0.58418453
-0.060688961 -0.036413379 0.58499378
-0.059745181 -0.03648157 0.58608931
-0.058841456 -0.03657712 0.58762437
-0.058097985 -0.036777623 0.59084553
-0.056028191 -0.036818523 0.59150261
-0.054837134 -0.036735553 0.59016967
-0.053692479 -0.036681 0.58929324
-0.052573245 -0.036641959 0.58866602
-0.051471636 -0.036613844 0.58821434
-0.050382536 -0.036593631 0.58788961
-0.049303055 -0.036579683 0.58766556
-0.048231412 -0.036571071 0.58752716
-0.047167666 -0.036568191 0.5874809
-0.046111856 -0.036571469 0.58753359
-0.045061234 -0.036579121 0.5876565
-0.044015251 -0.036590993 0.58784723
-0.042976242 -0.036609393 0.58814281
-0.041942779 -0.036633566 0.5885312
-0.040915255 -0.036664318 0.58902526
-0.039894551 -0.036702987 0.58964646
-0.038882207 -0.036751676 0.59042865
-0.037881527 -0.036814444 0.59143704
-0.036901549 -0.036901549 0.59283644
-0.035996269 -0.037070785 0.59555525
-0.019709565 -0.036755674 0.5904929
-0.018598415 -0.036665447 0.58904338
-0.017507771 -0.036607157 0.58810693
-0.01642655 -0.03656232 0.58738661
-0.015352163 -0.036527559 0.58682817
-0.014282036 -0.036498535 0.58636189
-0.013214747 -0.036472704 0.58594686
-0.012150844 -0.036452532 0.58562279
-0.011088422 -0.036433388 0.58531523
-0.010028398 -0.036418919 0.58508277
-0.0089694131 -0.036405265 0.58486342
-0.0079119187 -0.036394827 0.58469576
-0.0068553276 -0.036385972 0.58455348
-0.0057994933 -0.036378641 0.5844357
-0.0047444501 -0.036374118 0.58436304
-0.0036896698 -0.036369603 0.5842905
-0.0026354282 -0.036368906 0.58427936
-0.0015812377 -0.036368467 0.58427227
-0.00052710081 -0.036369957 0.58429623
0.00052715262 -0.03637353 0.58435363
0.0015816186 -0.036377225 0.58441299
0.0026365875 -0.036384907 0.58453637
0.0036920025 -0.036392596 0.58465993
0.0047482243 -0.036403053 0.5848279
0.034873754 -0.03701983 0.59473664
0.03552461 -0.036585044 0.58775169
0.035875898 -0.035875898 0.57635897
0.036242202 -0.035221297 0.56584257
0.036742188 -0.034728918 0.55793232
0.037439063 -0.034443937 0.55335402
0.038327865 -0.03434575 0.55177659
0.039238088 -0.03427124 0.55057961
0.040067025 -0.034131169 0.54832929
0.041054025 -0.034129251 0.54829848
0.04204328 -0.034129251 0.54829848
0.043032534 -0.034129251 0.54829848
0.044022113 -0.034129504 0.54830253
0.045013536 -0.034131143 0.54832888
0.046025667 -0.034148075 0.54860091
0.047282845 -0.034342274 0.5517208
0.048458327 -0.034470357 0.55377847
0.05282015 -0.036814041 0.5914306
-0.07071051 -0.036164917 0.59834552
-0.069407187 -0.036048692 0.59642261
-0.068377353 -0.036073089 0.59682626
-0.067323923 -0.036085624 0.59703362
-0.066248782 -0.036086734 0.59705198
-0.063884906 -0.035374288 0.58526462
-0.062654629 -0.035276134 0.58364069
-0.061667621 -0.035313938 0.58426613
-0.060700204 -0.035364468 0.58510214
-0.059759095 -0.035432383 0.58622581
-0.058859151 -0.035527594 0.5878011
-0.057130858 -0.035773527 0.59187001
-0.055926111 -0.035686187 0.59042495
-0.054772258 -0.035628553 0.58947146
-0.053647175 -0.035587732 0.58879602
-0.052540887 -0.035557974 0.58830369
-0.051448017 -0.035536259 0.58794445
-0.050365474 -0.035520915 0.58769053
-0.049291231 -0.035510886 0.58752465
-0.048227403 -0.035508089 0.58747834
-0.047169581 -0.035509683 0.58750474
-0.046117187 -0.035515536 0.58760154
-0.045071021 -0.03552657 0.58778411
-0.044030704 -0.035542857 0.58805358
-0.042996343 -0.035564877 0.58841789
-0.041968241 -0.03559332 0.58888847
-0.040946454 -0.035628732 0.58947438
-0.039933041 -0.035673514 0.59021533
-0.038930338 -0.035730585 0.59115952
-0.037946455 -0.035808627 0.59245074
-0.037010316 -0.035937555 0.59458381
-0.021841329 -0.035691928 0.59051996
-0.020724721 -0.035604008 0.58906531
-0.01963059 -0.035547283 0.58812684
-0.018546678 -0.035503641 0.58740479
