# .PCD v0.7 - Point Cloud Data file format
VERSION 0.7
FIELDS x y z
SIZE 4 4 4
TYPE F F F
COUNT 1 1 1
WIDTH 1337
HEIGHT 1
VIEWPOINT 0 0 0 1 0 0 0
POINTS 1337
DATA ascii
-0.084155537 0.007062559 0.69600004
-0.082369909 0.0080259778 0.69700003
-0.072941691 0.0070828539 0.69800001
-0.070828885 0.007062559 0.69600004
-0.06802132 0.0080209039 0.69650006
-0.064256378 0.0080273459 0.69700003
-0.061397936 0.0070727062 0.69700003
-0.034656532 0.0089663668 0.69600004
-0.032846842 0.0070828539 0.69800001
-0.0042076614 0.0070828539 0.69800001
-0.0022950899 0.0089792497 0.69700003
0.026265323 0.007062559 0.69600004
0.028250076 0.0089921327 0.69800001
-0.10539943 0.010901411 0.69800001
-0.080578811 0.010901411 0.69800001
-0.067213856 0.010901411 0.69800001
-0.063304476 0.010885793 0.69700003
-0.061397936 0.010885793 0.69700003
-0.05369461 0.010870175 0.69600004
-0.032799784 0.010885793 0.69700003
-0.10524843 0.013744241 0.69700003
-0.10319363 0.012773983 0.69600004
-0.082310818 0.013735063 0.69650006
-0.051790804 0.012773983 0.69600004
-0.031822979 0.013736431 0.69650006
0.0015158188 0.014677791 0.69600004
0.026340798 0.012810689 0.69800001
-0.10319363 0.016581599 0.69600004
-0.084276453 0.016605424 0.69700003
-0.051939629 0.016629247 0.69800001
0.0034196267 0.016581599 0.69600004
-0.099528797 0.018511968 0.69700003
-0.097482197 0.018485406 0.69600004
-0.088979617 0.020403862 0.69650006
-0.084870748 0.019774141 0.69666672
-0.051939629 0.018538525 0.69800001
-0.048052132 0.02041851 0.69700003
-0.034706324 0.02041851 0.69700003
-0.02139117 0.019493164 0.69800001
-0.019426068 0.019437309 0.69600004
-0.016589237 0.019458598 0.69675004
-0.013744202 0.019478519 0.69749999
-0.010875219 0.019464554 0.69700003
-0.0080089699 0.019451957 0.69650006
0.0034294531 0.018538525 0.69800001
0.016770344 0.02041851 0.69700003
-0.049041241 0.022341069 0.69749999
-0.034656532 0.022293022 0.69600004
-0.032846842 0.022357084 0.69800001
-0.027119005 0.022357084 0.69800001
-0.025173608 0.022325054 0.69700003
0.0072272425 0.022293022 0.69600004
-0.057667464 0.026175642 0.69800001
-0.055758186 0.026175642 0.69800001
-0.049886994 0.026100639 0.69600004
-0.047983188 0.026100639 0.69600004
-0.036560338 0.02419683 0.69600004
-0.034681428 0.025166117 0.69650006
-0.032846842 0.024266362 0.69800001
-0.028033424 0.024231596 0.69700003
-0.0060994131 0.02419683 0.69600004
-0.061486021 0.029994199 0.69800001
-0.057502225 0.029908255 0.69600004
-0.055598419 0.029908255 0.69600004
-0.052817121 0.028996587 0.69700003
-0.049886994 0.028004447 0.69600004
-0.047983188 0.028004447 0.69600004
-0.03721245 0.028652461 0.69633341
-0.034681428 0.02897647 0.69650006
-0.009921263 0.028999323 0.69700003
-0.0070629558 0.029008698 0.69725001
-0.063395299 0.031903479 0.69800001
-0.061309841 0.031812061 0.69600004
-0.057502225 0.031812061 0.69600004
-0.055598419 0.031812061 0.69600004
-0.037538506 0.031834915 0.69650006
-0.034656532 0.031812061 0.69600004
-0.016592797 0.03185777 0.69700003
-0.013754055 0.031903479 0.69800001
-0.065304577 0.033812758 0.69800001
-0.036560338 0.03561968 0.69600004
-0.03475612 0.035722036 0.69800001
-0.03182435 0.035645269 0.69650006
-0.028052852 0.035696447 0.69749999
-0.02139117 0.035722036 0.69800001
-0.019426068 0.03371587 0.69600004
-0.017572612 0.033812758 0.69800001
-0.034706324 0.037577398 0.69700003
-0.031846512 0.037577398 0.69700003
-0.028986696 0.037577398 0.69700003
-0.063304476 0.041390486 0.69700003
-0.046079379 0.041331101 0.69600004
-0.042271763 0.039427295 0.69600004
-0.037606221 0.040480383 0.69774997
-0.03475612 0.041449871 0.69800001
-0.032210413 0.040813446 0.69800001
-0.061309841 0.043234911 0.69600004
-0.052818488 0.04329703 0.69700003
-0.049041241 0.043328092 0.69749999
-0.061486021 0.045268424 0.69800001
-0.058580793 0.046190642 0.69749999
-0.055678304 0.045203574 0.69700003
-0.052894268 0.045268424 0.69800001
-0.049075712 0.045268424 0.69800001
0.0091572888 0.056724098 0.69800001
0.011066567 0.058633376 0.69800001
0.012975846 0.058633376 0.69800001
0.0053310832 0.062362462 0.69700003
0.0072376262 0.060455918 0.69700003
0.0148638 0.060455918 0.69700003
-0.0042076614 0.064361215 0.69800001
-0.0022950899 0.064269006 0.69700003
-0.009921263 0.068082094 0.69700003
-0.0080032209 0.067984417 0.69600004
-0.0041956049 0.066080607 0.69600004
0.011034858 0.067032516 0.69600004
0.01391586 0.06715256 0.69725001
0.016794404 0.068179771 0.69800001
-0.015640892 0.071895182 0.69700003
-0.011844777 0.07008905 0.69800001
-0.0041956049 0.070840128 0.69600004
0.0015158188 0.069888227 0.69600004
0.0043828641 0.071017899 0.69774997
0.0072376262 0.07094191 0.69700003
0.010097441 0.07094191 0.69700003
0.012975846 0.07008905 0.69800001
-0.022330485 0.07385467 0.69749999
-0.019426068 0.073695838 0.69600004
-0.0060994131 0.073695838 0.69600004
-0.0042076614 0.073907606 0.69800001
-0.0013434647 0.07385467 0.69749999
0.0015179967 0.073801726 0.69700003
0.0091572888 0.073907606 0.69800001
-0.027119005 0.077726163 0.69800001
-0.010881651 0.077670485 0.69749999
-0.0070600808 0.07570827 0.69700003
-0.00038798919 0.075599648 0.69600004
0.0015158188 0.075599648 0.69600004
0.0043816357 0.07576257 0.69749999
-0.030893238 0.079521351 0.69700003
-0.013734349 0.079521351 0.69700003
-0.011844777 0.079635441 0.69800001
-0.037620038 0.08154472 0.69800001
-0.03475612 0.08154472 0.69800001
-0.030848915 0.081311069 0.69600004
-0.016605385 0.082440257 0.69749999
-0.013734349 0.083334439 0.69700003
-0.010867417 0.083274662 0.69650006
-0.0070614484 0.083334439 0.69700003
-0.0042076614 0.083453998 0.69800001
-0.038464148 0.085118689 0.69600004
-0.021360522 0.085240982 0.69700003
-0.013754055 0.085363276 0.69800001
-0.01088302 0.085302129 0.69749999
-0.0070614484 0.085240982 0.69700003
-0.0042076614 0.085363276 0.69800001
-0.038464148 0.087022498 0.69600004
-0.021984911 0.088375963 0.69666672
-0.013734349 0.087147526 0.69700003
-0.010870976 0.088070229 0.69675004
-0.0070687048 0.088195942 0.69774997
-0.0042046476 0.08816468 0.69749999
-0.001340172 0.088037603 0.69650006
-0.027041299 0.09273392 0.69600004
-0.025173608 0.092867151 0.69700003
-0.022329118 0.091025859 0.69749999
-0.010875903 0.090960607 0.69700003
-0.0070592575 0.091880575 0.69675004
-0.00038798919 0.09273392 0.69600004
0.0015169077 0.091848627 0.69650006
-0.027041299 0.094637729 0.69600004
-0.025173608 0.094773695 0.69700003
-0.010562435 0.094182588 0.69733334
0.0034196267 0.094637729 0.69600004
-0.030937564 0.097773582 0.69800001
-0.010556777 0.097951271 0.69700003
-0.0013401719 0.096610889 0.69650006
0.0015179967 0.096680239 0.69700003
0.0043816357 0.096749589 0.69749999
0.0091572888 0.098728225 0.69800001
-0.0080032209 0.10034915 0.69600004
0.0015179967 0.10049333 0.69700003
0.0043715308 0.10034915 0.69600004
0.0072376262 0.10049333 0.69700003
-0.0080032209 0.10225296 0.69600004
0.0043739872 0.10327968 0.69650006
0.00724801 0.10254679 0.69800001
0.0015179967 0.10621295 0.69700003
-0.055758186 0.11400246 0.69800001
-0.088595077 -0.12902813 0.70100003
-0.085718848 -0.12902813 0.70100003
-0.082842618 -0.12902813 0.70100003
-0.13327464 -0.12674798 0.69900006
-0.12753859 -0.12674798 0.69900006
-0.12502728 -0.12711063 0.70100003
-0.1219768 -0.1269293 0.70000005
-0.11797852 -0.12674798 0.69900006
-0.11527517 -0.1269293 0.70000005
-0.11240305 -0.1269293 0.70000005
-0.10937446 -0.12674798 0.69900006
-0.10776991 -0.12711063 0.70100003
-0.10201746 -0.12711063 0.70100003
-0.10009998 -0.12711063 0.70100003
-0.094078347 -0.12865999 0.69900006
-0.091274887 -0.12875202 0.69950008
-0.16337697 -0.12327567 0.70100003
-0.16122916 -0.1230998 0.70000005
-0.15378955 -0.12327567 0.70100003
-0.15187207 -0.12327567 0.70100003
-0.14995459 -0.12327567 0.70100003
-0.14314052 -0.12318774 0.70050001
-0.13901067 -0.12483596 0.69900006
-0.13633741 -0.12501456 0.70000005
-0.13346529 -0.12501456 0.70000005
-0.13040662 -0.12483596 0.69900006
-0.12886225 -0.12519315 0.70100003
-0.11735734 -0.12519315 0.70100003
-0.20497516 -0.12101194 0.69900006
-0.20306315 -0.12101194 0.69900006
-0.18776703 -0.12292395 0.69900006
-0.18585502 -0.12292395 0.69900006
-0.17820697 -0.12101194 0.69900006
-0.17533895 -0.12101194 0.69900006
-0.17247093 -0.12292395 0.69900006
-0.16418552 -0.12164927 0.69900006
-0.16099884 -0.12101194 0.69900006
-0.15357016 -0.12118506 0.70000005
-0.14889026 -0.12127163 0.70050001
-0.14611961 -0.12135819 0.70100003
-0.19686307 -0.11843936 0.70075005
-0.19364148 -0.11822774 0.69950008
-0.19090711 -0.11831225 0.70000005
-0.18748693 -0.11805061 0.70033336
-0.18433774 -0.11839813 0.70050001
-0.18063433 -0.1194407 0.70100003
-0.14611961 -0.096430883 0.70100003
-0.14379071 -0.096155755 0.69900006
-0.15165542 -0.094378561 0.70000005
-0.16721195 -0.090678424 0.70100003
-0.16482286 -0.09041971 0.69900006
-0.15762451 -0.092595913 0.70100003
-0.15463723 -0.092529863 0.70050001
-0.15143877 -0.092331722 0.69900006
-0.17104691 -0.088760942 0.70100003
-0.16888817 -0.08863432 0.70000005
-0.16673487 -0.088507697 0.69900006
-0.1937799 -0.084804818 0.70000005
-0.19077209 -0.084744245 0.69950008
-0.18707827 -0.085762195 0.70000005
-0.20335364 -0.082890071 0.70000005
-0.13633741 -0.075231075 0.70000005
-0.14611961 -0.073421061 0.70100003
-0.13825217 -0.073316328 0.70000005
-0.15908682 -0.069387555 0.69900006
-0.15717481 -0.069387555 0.69900006
-0.15335079 -0.069387555 0.69900006
-0.15165542 -0.069486827 0.70000005
-0.14899585 -0.069586098 0.70100003
-0.14495242 -0.071401581 0.70000005
-0.14208166 -0.071401574 0.70000005
-0.14016692 -0.071401574 0.70000005
-0.13653219 -0.07150358 0.70100003
-0.054080348 -0.069586098 0.70100003
-0.052088454 -0.069486827 0.70000005
-0.15187207 -0.067668609 0.70100003
-0.14995459 -0.067668609 0.70100003
-0.055917952 -0.06757208 0.70000005
-0.048190009 -0.067475542 0.69900006
-0.15357018 -0.064701319 0.70000005
-0.057832703 -0.063742578 0.70000005
-0.055917952 -0.065657325 0.70000005
-0.046277996 -0.06556353 0.69900006
-0.044429455 -0.065657325 0.70000005
-0.17820697 -0.061739501 0.69900006
-0.17629495 -0.061739501 0.69900006
-0.15357016 -0.061827827 0.70000005
-0.057832703 -0.061827827 0.70000005
-0.042514704 -0.061827827 0.70000005
-0.19923912 -0.057915475 0.69900006
-0.19090641 -0.057998329 0.70000005
-0.183943 -0.059827488 0.69900006
-0.18203099 -0.059827488 0.69900006
-0.17820697 -0.059827488 0.69900006
-0.17654715 -0.057998329 0.70000005
-0.15187207 -0.059039928 0.70100003
-0.084639192 -0.057998329 0.70000005
-0.082842618 -0.058081187 0.70100003
-0.059110116 -0.058637496 0.70000005
-0.055838067 -0.057915475 0.69900006
-0.053926051 -0.057915475 0.69900006
-0.043441713 -0.058912911 0.69950008
-0.040657956 -0.059998672 0.70100003
-0.19186515 -0.056083582 0.70000005
-0.17463242 -0.054168832 0.70000005
-0.15335079 -0.054091446 0.69900006
-0.15143877 -0.056003459 0.69900006
-0.086430289 -0.055047452 0.69900006
-0.082606263 -0.054091446 0.69900006
-0.079570763 -0.054832876 0.70033336
-0.077035181 -0.0551649 0.70050001
-0.061662201 -0.056083582 0.70000005
-0.05974745 -0.054168832 0.70000005
-0.052970044 -0.054091446 0.69900006
-0.046277996 -0.054091446 0.69900006
-0.043534182 -0.055204958 0.70100003
-0.15165542 -0.052254081 0.70000005
-0.14995459 -0.052328732 0.70100003
-0.07405445 -0.052216753 0.69950008
-0.069420226 -0.052328732 0.70100003
-0.064581104 -0.052291408 0.70050001
-0.061574109 -0.05217943 0.69900006
-0.046277996 -0.05217943 0.69900006
-0.044492926 -0.052328732 0.70100003
-0.17463242 -0.050339334 0.70000005
-0.15739967 -0.048424583 0.70000005
-0.1552628 -0.050267417 0.69900006
-0.090383433 -0.050339334 0.70000005
-0.076131418 -0.050411247 0.70100003
-0.073255196 -0.050411247 0.70100003
-0.071337715 -0.050411247 0.70100003
-0.063667774 -0.050411247 0.70100003
-0.061662201 -0.050339334 0.70000005
-0.053926051 -0.050267417 0.69900006
-0.046410412 -0.048493762 0.70100003
-0.17247093 -0.046443388 0.69900006
-0.16864689 -0.046443388 0.69900006
-0.16613394 -0.046543054 0.70050001
-0.067310147 -0.046443388 0.69900006
-0.06448891 -0.04647661 0.69950008
-0.055838067 -0.046443388 0.69900006
-0.048258957 -0.046509832 0.70000005
-0.091274887 -0.043605857 0.69950008
-0.054920636 -0.04264985 0.69950008
-0.052162863 -0.042741306 0.70100003
-0.048190009 -0.044531379 0.69900006
-0.046410412 -0.043700047 0.70100003
-0.091276258 -0.040736467 0.69950008
-0.042575441 -0.040823821 0.70100003
-0.040657956 -0.040823821 0.70100003
-0.011861745 -0.04070735 0.69900006
-0.084639192 -0.036936086 0.70000005
-0.082724445 -0.036936086 0.70000005
-0.079795972 -0.038823087 0.69950008
-0.05775008 -0.038795337 0.69900006
-0.048190009 -0.038795337 0.69900006
-0.042575441 -0.038906336 0.70100003
-0.040657956 -0.038906336 0.70100003
-0.034855708 -0.036936086 0.70000005
-0.015685774 -0.038795337 0.69900006
-0.0023082611 -0.036988851 0.70100003
-0.076980196 -0.034063965 0.70000005
-0.074002199 -0.034971308 0.69900006
-0.07113418 -0.034971308 0.69900006
-0.037701569 -0.034996323 0.69950008
-0.034905501 -0.035071369 0.70100003
-0.0023049684 -0.035021339 0.70000005
-0.071337715 -0.031236397 0.70100003
-0.058831386 -0.031214118 0.70050001
-0.055838067 -0.031147281 0.69900006
-0.034905501 -0.031236397 0.70100003
-0.057915319 -0.029318914 0.70100003
-0.055838067 -0.029235266 0.69900006
-0.052162863 -0.027401429 0.70100003
-0.049146019 -0.027323252 0.69900006
-0.046277996 -0.027323252 0.69900006
-0.034805916 -0.029235266 0.69900006
-0.027177285 -0.02830017 0.69950008
0.0034392797 -0.027362341 0.70000005
-0.036770456 -0.02544759 0.70000005
0.0053463806 -0.025411237 0.69900006
-0.043440342 -0.022558659 0.69950008
-0.040599953 -0.021618092 0.70000005
-0.038740471 -0.023566458 0.70100003
-0.025318079 -0.021648975 0.70100003
-0.11543985 -0.01973149 0.70100003
-0.11248402 -0.019717418 0.70050001
0.0091704084 -0.019675195 0.69900006
-0.11727364 -0.016843924 0.70050001
-0.099957183 -0.017788593 0.70000005
-0.091274887 -0.016819879 0.69950008
-0.088468686 -0.016832586 0.70000005
-0.085657708 -0.016843924 0.70050007
-0.082842618 -0.01589652 0.70100003
-0.019537712 -0.015873844 0.70000005
-0.12101942 -0.012044345 0.70000005
-0.076305293 -0.013315109 0.69966674
-0.074106701 -0.012044344 0.70000005
-0.019537712 -0.013959095 0.70000005
-0.017622963 -0.012044345 0.70000005
0.014938438 -0.01301169 0.70050001
-0.063486122 -0.010115125 0.69900006
-0.061750289 -0.010144067 0.70100003
-0.059832804 -0.010144067 0.70100003
0.016866585 -0.010144067 0.70100003
-0.12110586 -0.0072633391 0.70050001
-0.063486122 -0.0082031107 0.69900006
-0.061662201 -0.0082148463 0.70000005
-0.058832753 -0.0082207136 0.70050001
-0.055917952 -0.0063000969 0.70000005
0.016818466 -0.0082031107 0.69900006
-0.11814867 -0.0043853475 0.70000005
-0.11814867 -0.0024705981 0.70000005
-0.10953093 -0.00055584882 0.70000005
-0.055917952 -0.0024705981 0.70000005
0.022586774 -0.0015145912 0.70000005
-0.10666017 0.0013589006 0.70000005
-0.0099497316 0.0013569592 0.69900006
0.02446652 0.0013569592 0.69900006
-0.10393494 0.0051958114 0.70100003
-0.1007704 0.0032689734 0.69900006
-0.080809698 0.005188399 0.70000005
-0.042453971 0.0051809875 0.69900006
-0.031070532 0.0051958114 0.70100003
-0.0080607152 0.0032783265 0.70100003
0.026378533 0.0051809875 0.69900006
-0.10378668 0.0071031484 0.70000005
-0.07985232 0.0071031484 0.70000005
-0.076980196 0.0071031484 0.70000005
-0.074958205 0.0070930012 0.69900006
-0.059832804 0.0071132961 0.70100003
-0.050173704 0.0071031484 0.70000005
-0.031070532 0.0071132961 0.70100003
0.028371494 0.0071132961 0.70100003
-0.10585243 0.0090307808 0.70100003
-0.080925137 0.0090307808 0.70100003
-0.070254497 0.0099720508 0.69975007
-0.065398134 0.0099610221 0.69900006
-0.061574109 0.0090050148 0.69900006
-0.059832804 0.010948265 0.70100003
-0.054003205 0.0090178978 0.70000005
-0.031960055 0.0099688312 0.69950008
-0.0042257463 0.0090307808 0.70100003
-0.0023049684 0.010932648 0.70000005
0.028290547 0.010917029 0.69900006
-0.10761618 0.014762146 0.70000005
-0.080809698 0.013803404 0.70000005
-0.063667774 0.012865751 0.70100003
-0.061750289 0.012865751 0.70100003
-0.054003205 0.012847397 0.70000005
-0.031026209 0.012847397 0.70000005
-0.029153047 0.014783235 0.70100003
-0.00039021901 0.01380614 0.70000005
-0.10555043 0.016653072 0.69900006
-0.082724445 0.016676895 0.70000005
-0.030981887 0.016653072 0.69900006
-0.0099782003 0.01670072 0.70100003
0.0015267082 0.01670072 0.70100003
0.022554506 0.016653072 0.69900006
-0.10187193 0.018591644 0.70000005
-0.092298187 0.020506395 0.70000005
-0.082724437 0.019550387 0.70000005
-0.052162863 0.020535689 0.70100003
-0.050102025 0.020477099 0.69900006
-0.031648774 0.019859292 0.69966674
-0.028486161 0.019239658 0.70033336
-0.025318079 0.018618206 0.70100003
-0.023333831 0.019521093 0.69900006
-0.0061432309 0.020535689 0.70100003
0.0053540291 0.020506395 0.70000005
0.020701556 0.018618206 0.70100003
-0.084760107 0.022453174 0.70100003
-0.052088454 0.022421144 0.70000005
-0.031026209 0.022421144 0.70000005
-0.029069873 0.022389114 0.69900006
0.014927777 0.022421144 0.70000005
-0.05974745 0.026250642 0.70000005
-0.052970044 0.026213141 0.69900006
-0.049181856 0.024318509 0.69950008
-0.030981887 0.024301127 0.69900006
-0.0042197178 0.026250642 0.70000005
-0.05870609 0.028125154 0.69900006
-0.055838067 0.028125154 0.69900006
-0.053926051 0.028125154 0.69900006
-0.063486122 0.030037168 0.69900006
-0.010919973 0.03199489 0.70000005
-0.065585256 0.035875566 0.70100003
-0.025245845 0.03577321 0.69900006
-0.023333831 0.03577321 0.69900006
-0.019537712 0.035824388 0.70000005
-0.016678177 0.034892604 0.70050001
-0.013793464 0.033909641 0.70000005
-0.010936943 0.033958081 0.70100003
-0.0061432309 0.033958081 0.70100003
-0.065491699 0.037739139 0.70000005
-0.02715786 0.037685223 0.69900006
-0.02528196 0.037739139 0.70000005
-0.022394514 0.037712179 0.69950008
-0.019537712 0.037739139 0.70000005
-0.01764814 0.037793051 0.70100003
-0.034805916 0.039597239 0.69900006
-0.030981887 0.039597239 0.69900006
-0.02911146 0.040612631 0.70000005
-0.046277996 0.043421268 0.69900006
-0.043440342 0.04345233 0.69950008
-0.040599953 0.043483388 0.70000005
-0.05775008 0.047245298 0.69900006
-0.055838067 0.047245298 0.69900006
-0.046344206 0.045398135 0.70000005
-0.043472081 0.045398135 0.70000005
-0.058790077 0.049227636 0.70000005
0.0053616776 0.056967895 0.70100003
0.0072687785 0.056886632 0.70000005
0.010132976 0.055888623 0.69950008
0.0072791623 0.058885381 0.70100003
0.0091704084 0.058717381 0.69900006
-0.0010297522 0.062051367 0.70066667
0.0015245304 0.062630877 0.70000005
0.0040758918 0.061324555 0.69966674
-0.0070932093 0.064545631 0.70000005
0.016818466 0.064453423 0.69900006
-0.010919973 0.067416385 0.70000005
-0.0070874598 0.066412911 0.69950008
0.016842525 0.066460378 0.70000005
-0.01381317 0.070390292 0.70100003
0.014906451 0.070189469 0.69900006
0.016842525 0.07028988 0.70000005
-0.027235562 0.072307773 0.70100003
-0.02528196 0.073162004 0.70000005
-0.022409838 0.072204627 0.70000005
-0.019537712 0.072204627 0.70000005
-0.017597787 0.072101481 0.69900006
0.0043903738 0.074013494 0.69900006
0.0072583947 0.074013494 0.69900006
0.013961107 0.072153054 0.69950008
0.016842525 0.072204627 0.70000005
-0.028446397 0.076599054 0.69933343
-0.0080492161 0.077948876 0.70000005
-0.0042197178 0.076034129 0.70000005
-0.0013459473 0.076937191 0.69950008
0.0072583947 0.075925507 0.69900006
0.0091835279 0.076034129 0.70000005
-0.037700199 0.079806581 0.69950008
-0.034805916 0.079749539 0.69900006
-0.032029275 0.079018973 0.70100003
-0.009963966 0.079863623 0.70000005
-0.0067823925 0.079338551 0.70100003
-0.0042257463 0.079977714 0.70100003
-0.001668002 0.079300523 0.70066667
0.0015267082 0.078060232 0.70100003
-0.040599953 0.083693124 0.70000005
-0.032940958 0.081778377 0.70000005
-0.01377376 0.081661552 0.69900006
-0.01092134 0.081778377 0.70000005
-0.0070817103 0.081661552 0.69900006
-0.0042257463 0.081895195 0.70100003
-0.0023016755 0.083573565 0.69900006
-0.019537712 0.085607871 0.70000005
-0.016689397 0.085730165 0.70100003
-0.0023016755 0.085485578 0.69900006
-0.038629942 0.089309603 0.69900006
-0.019537713 0.088481367 0.70000005
-0.016689397 0.087647654 0.70100003
-0.013793464 0.089437373 0.70000005
0.0015223525 0.088353597 0.69900006
-0.038740471 0.091482624 0.70100003
-0.019509802 0.091221623 0.69900006
-0.01764814 0.091482624 0.70100003
-0.01377376 0.091221623 0.69900006
0.0043980218 0.09135212 0.70000005
-0.036770456 0.093266875 0.70000005
-0.034805916 0.095045649 0.69900006
-0.022393147 0.094156943 0.69950008
-0.019565623 0.094358847 0.70100003
-0.013793464 0.095181622 0.70000005
-0.011878715 0.093266875 0.70000005
0.0043928302 0.094156265 0.69950008
0.0072687785 0.095181622 0.70000005
-0.032940958 0.097096376 0.70000005
-0.028445484 0.097641237 0.69933337
-0.02528196 0.097096376 0.70000005
-0.023400594 0.097235076 0.70100003
-0.011861745 0.096957661 0.69900006
0.0072687785 0.097096376 0.70000005
-0.027235562 0.099152558 0.70100003
-0.01381317 0.099152558 0.70100003
-0.010914223 0.10085378 0.69950008
0.0091835279 0.10092587 0.70000005
-0.010603127 0.10347887 0.70000005
-0.0080377171 0.10460572 0.69900006
0.0053616776 0.10490502 0.70100003
-0.009963966 0.10667012 0.70000005
-0.0080377171 0.10651773 0.69900006
-0.0070975912 0.10866243 0.70050001
-0.0042136894 0.10842974 0.69900006
-0.0023016755 0.10842974 0.69900006
-0.05775008 0.11416579 0.69900006
-0.054080348 0.11449244 0.70100003
-0.081156023 -0.12939624 0.70300001
-0.07164301 -0.1295803 0.70400006
0.11883134 -0.12939624 0.70300001
-0.10615444 -0.12747328 0.70300001
-0.10408323 -0.12729196 0.70200002
-0.097639836 -0.12765463 0.70400006
-0.094751298 -0.12765463 0.70400006
-0.092693754 -0.12747328 0.70300001
-0.1396073 -0.12345152 0.70200002
-0.13711649 -0.12380324 0.70400006
-0.12712586 -0.12537174 0.70200002
-0.12459951 -0.12572894 0.70400006
-0.12153809 -0.12555033 0.70300001
-0.11944498 -0.12537174 0.70200002
-0.11576922 -0.12555033 0.70300001
-0.11280519 -0.12546104 0.70249999
-0.10896064 -0.12546104 0.70249999
-0.1034169 -0.12572894 0.70400006
-0.10052837 -0.12572894 0.70400006
-0.09667699 -0.12572894 0.70400006
-0.09179683 -0.12563963 0.70350003
-0.088974223 -0.12572894 0.70400006
0.11900038 -0.12572894 0.70400006
-0.15208873 -0.1215313 0.70200002
-0.14461355 -0.12170442 0.70300001
-0.1426906 -0.12170442 0.70300001
-0.13970742 -0.12161786 0.70249999
-0.13711649 -0.12187755 0.70400006
-0.18217216 -0.11833093 0.70199996
-0.1752561 -0.11873616 0.70249999
-0.17225103 -0.11865097 0.70200002
-0.16949135 -0.11873616 0.70249999
-0.16327889 -0.11855537 0.70333338
-0.15059634 -0.11995186 0.70400006
-0.14867064 -0.11995186 0.70400006
-0.14867064 -0.09684357 0.70400006
-0.14440784 -0.098488659 0.70200002
-0.14258912 -0.097598702 0.70249999
-0.15400894 -0.09464822 0.70200002
-0.14096788 -0.094917879 0.70400006
-0.16937071 -0.090807781 0.70200002
-0.15976961 -0.092727996 0.70200002
-0.14096788 -0.092992187 0.70400006
-0.13904218 -0.087215111 0.70400006
-0.13864718 -0.085047118 0.70200002
-0.13692173 -0.079399407 0.70300001
-0.13692173 -0.077476449 0.70300001
-0.14440784 -0.073525801 0.70200002
-0.1426906 -0.073630542 0.70300001
-0.14056741 -0.073525801 0.70200002
-0.13672696 -0.073525801 0.70200002
-0.14653651 -0.069784626 0.70300001
-0.050317053 -0.069685362 0.70200002
-0.14845946 -0.067861669 0.70300001
-0.14557366 -0.067861676 0.70300007
-0.058080558 -0.067861669 0.70300001
-0.046542823 -0.067861669 0.70300001
-0.15230538 -0.064015761 0.70300001
-0.060003512 -0.064015761 0.70300001
-0.058080558 -0.065938719 0.70300001
-0.040773954 -0.064015761 0.70300001
-0.085001931 -0.06016985 0.70300001
-0.082058415 -0.060127053 0.70249999
-0.060088862 -0.062181134 0.70400006
-0.040715955 -0.062004477 0.70200002
-0.038906265 -0.060255442 0.70400006
-0.081156023 -0.058246896 0.70300001
-0.062014554 -0.05832975 0.70400006
-0.042696912 -0.058246896 0.70300001
-0.15102249 -0.055041969 0.70300007
-0.088911034 -0.055402525 0.70350003
-0.075387157 -0.055362463 0.70300001
-0.073568702 -0.055441216 0.70400006
-0.063849419 -0.056323938 0.70300001
-0.061926469 -0.054400984 0.70300001
-0.090641685 -0.052403379 0.70200002
-0.071439475 -0.052403379 0.70200002
-0.067599036 -0.052403379 0.70200002
-0.092561901 -0.048562936 0.70200002
-0.069519259 -0.05048316 0.70200002
-0.067695335 -0.050555073 0.70300001
-0.065678813 -0.05048316 0.70200002
-0.046476614 -0.05048316 0.70200002
-0.044619866 -0.048632119 0.70300001
-0.092693754 -0.046709161 0.70300001
-0.046609029 -0.046775606 0.70400006
-0.092693754 -0.04286325 0.70300001
-0.049391419 -0.042832762 0.70249999
-0.044619866 -0.043826096 0.70300007
-0.090899915 -0.039072841 0.70400006
-0.088847846 -0.039017342 0.70300001
-0.037875704 -0.039964259 0.70275003
-0.035054885 -0.039072841 0.70400006
-0.0042408165 -0.040007938 0.70350003
-0.088974223 -0.037147149 0.70400006
-0.086202383 -0.038339358 0.70233327
-0.082960799 -0.038961839 0.70200002
-0.033082131 -0.037094384 0.70300001
-0.019593535 -0.037041616 0.70200002
-0.081836402 -0.03454712 0.70333338
-0.079120353 -0.034161285 0.70200002
-0.021513755 -0.035121396 0.70200002
-0.075494386 -0.031370077 0.70400006
-0.073359698 -0.031280957 0.70200002
-0.069519259 -0.031280957 0.70200002
-0.067599036 -0.031280957 0.70200002
-0.063758597 -0.031280957 0.70200002
-0.061838374 -0.031280957 0.70200002
-0.025354195 -0.031280957 0.70200002
0.001531064 -0.031325519 0.70300001
-0.0734642 -0.029402563 0.70300001
-0.071439475 -0.029360738 0.70200002
-0.061926469 -0.029402563 0.70300001
-0.059918154 -0.029360738 0.70200002
-0.054157495 -0.027440516 0.70200002
0.0034491064 -0.029360738 0.70200002
-0.05431179 -0.025593005 0.70400006
-0.052311689 -0.025556652 0.70300001
-0.029236222 -0.025556652 0.70300001
-0.11576922 -0.02171074 0.70300001
-0.11272421 -0.021679858 0.70200002
-0.049497563 -0.023667315 0.70400006
-0.046542823 -0.023633696 0.70300001
-0.044556398 -0.021679858 0.70200002
-0.038851 -0.02171074 0.70300001
-0.027352121 -0.023667315 0.70400006
0.0073103146 -0.023667315 0.70400006
0.009209767 -0.021679858 0.70200002
-0.10896064 -0.019773711 0.70249999
-0.10630544 -0.019815933 0.70400006
-0.10437975 -0.019815933 0.70400006
-0.092825606 -0.019815933 0.70400006
-0.023467356 -0.019787785 0.70300001
-0.08171913 -0.017207814 0.70233339
-0.079233065 -0.016904719 0.70300007
-0.023500739 -0.017890243 0.70400006
0.013050207 -0.015919197 0.70200002
-0.073359698 -0.013998978 0.70200002
-0.070629284 -0.013066728 0.70350003
-0.067791626 -0.01211317 0.70400006
-0.065865934 -0.01211317 0.70400006
-0.057997935 -0.010158538 0.70200002
-0.0561576 -0.010173008 0.70300001
-0.017673314 -0.010158538 0.70200002
-0.0561576 -0.008250053 0.70300001
-0.015797975 -0.0072989431 0.70400006
-0.12171097 -0.0044104066 0.70400006
-0.056237482 -0.0044104066 0.70400006
-0.01385258 -0.004404142 0.70300001
0.020760618 -0.004404142 0.70300001
-0.12171097 -0.0024847158 0.70400006
-0.1159339 -0.00055902509 0.70400006
-0.11280519 -0.00055783399 0.70249999
-0.056077715 -0.00055743696 0.70200002
-0.013872284 -0.0024847158 0.70400006
-0.011929625 -0.00055823103 0.70300001
-0.1140082 0.0013666657 0.70400006
-0.1117641 0.0013627831 0.70200002
-0.10984388 0.0013627831 0.70200002
-0.0561576 0.0013647244 0.70300001
-0.011946593 0.0013666657 0.70400006
-0.10408323 0.0032830031 0.70200002
-0.058163173 0.0052180472 0.70400006
-0.044556398 0.0052032233 0.70200002
-0.03406851 0.0032900181 0.70350003
-0.031159177 0.0032876797 0.70300001
-0.0080837132 0.0052106353 0.70300001
0.026529485 0.0032876797 0.70300001
-0.10630544 0.0071437382 0.70400006
-0.052311689 0.0071335905 0.70300001
-0.0061607575 0.0071335905 0.70300001
-0.1080774 0.010979502 0.70300001
-0.079120353 0.010003773 0.70200002
-0.076670028 0.0096984431 0.70300001
-0.073516451 0.010025833 0.70350003
-0.059918154 0.0090436637 0.70200002
-0.031114856 0.0090436637 0.70200002
-0.029277811 0.010032274 0.70400006
-0.0042378022 0.010979502 0.70300001
-0.1080774 0.012902457 0.70300001
-0.065865934 0.012920811 0.70400006
-0.01096103 0.014814869 0.70249999
-0.0080837132 0.014825413 0.70300001
-0.0023181397 0.012920811 0.70400006
-0.10823113 0.016772192 0.70400006
-0.081271462 0.016772192 0.70400006
-0.029194636 0.016724544 0.70200002
-0.022490555 0.016736455 0.70249999
-0.019593535 0.016724544 0.70200002
-0.016737014 0.016748369 0.70300001
-0.01385258 0.016748369 0.70300001
-0.011912654 0.016724544 0.70200002
-0.0080722142 0.016724544 0.70200002
-0.10437975 0.018697882 0.70400006
-0.094482124 0.020564985 0.70200002
-0.081040576 0.018644763 0.70200002
-0.027274417 0.020564985 0.70200002
-0.025354195 0.020564985 0.70200002
-0.0061519938 0.018644763 0.70200002
0.0034589327 0.020623574 0.70400006
-0.088847846 0.022517234 0.70300001
-0.086801238 0.022485206 0.70200002
-0.082960799 0.022485206 0.70200002
-0.069717318 0.022549264 0.70400006
0.0053769751 0.022517234 0.70300001
-0.063940242 0.026400646 0.70400006
-0.061838374 0.026325645 0.70200002
-0.055274636 0.024474956 0.70400006
-0.052311689 0.02444019 0.70300001
0.0072999308 0.02444019 0.70300001
0.009209767 0.024405425 0.70200002
-0.063940242 0.028326336 0.70400006
-0.061838374 0.028245866 0.70200002
-0.0042438302 0.028326336 0.70400006
-0.065678813 0.031126196 0.70200002
-0.007112104 0.032086305 0.70200002
-0.0042317742 0.030166086 0.70200002
-0.067599036 0.034006525 0.70200002
-0.01385258 0.035977922 0.70300001
-0.010006668 0.035977922 0.70300001
-0.0080722142 0.034006525 0.70200002
-0.0042438302 0.034103408 0.70400006
-0.015786756 0.03696499 0.70350003
-0.013872284 0.037954792 0.70400006
-0.011946593 0.0360291 0.70400006
-0.065819159 0.040815003 0.70350003
-0.027274417 0.040727295 0.70200002
-0.025390312 0.039823834 0.70300001
-0.022537893 0.039880481 0.70400006
-0.063758597 0.043607626 0.70200002
-0.037835628 0.043607626 0.70200002
-0.034092039 0.043731865 0.70400006
-0.063940242 0.045657553 0.70400006
-0.061926469 0.047515653 0.70300001
-0.054157495 0.047448065 0.70200002
-0.052237276 0.047448065 0.70200002
-0.049463093 0.047549449 0.70350003
-0.044683337 0.047583241 0.70400006
-0.040715955 0.045527846 0.70200002
-0.038906265 0.045657553 0.70400006
-0.061926469 0.049438611 0.70300001
-0.055156179 0.049403451 0.70249999
-0.052386101 0.049508933 0.70400006
-0.060088862 0.051434625 0.70400006
-0.058163173 0.051434625 0.70400006
0.0073103146 0.053360313 0.70400006
0.009209767 0.053208727 0.70200002
0.0053846235 0.055286005 0.70400006
0.0072999308 0.055207476 0.70300001
0.011129986 0.055128947 0.70200002
0.0015332419 0.059137385 0.70400006
0.0040957308 0.058439489 0.70333338
0.013050207 0.057049166 0.70200002
-0.0042378022 0.062899299 0.70300001
-0.0023181397 0.061063077 0.70400006
0.0015288861 0.060889605 0.70200002
0.016914707 0.062899299 0.70300001
-0.010969514 0.064822257 0.70300007
-0.016749602 0.068717003 0.70350003
-0.013832875 0.068570487 0.70200002
-0.011929625 0.066745207 0.70300001
0.018810866 0.068570487 0.70200002
-0.025426429 0.070691533 0.70400006
-0.023500739 0.070691533 0.70400006
-0.019649357 0.070691533 0.70400006
-0.016725793 0.07054092 0.70249999
0.018864458 0.070691533 0.70400006
-0.027274417 0.074331149 0.70200002
0.011129986 0.074331149 0.70200002
0.013087387 0.07454291 0.70400006
0.016938768 0.07454291 0.70400006
0.018810866 0.072410926 0.70200002
-0.031114856 0.076251365 0.70200002
0.011161696 0.076468602 0.70400006
-0.040773954 0.080205895 0.70300001
-0.037917152 0.078338623 0.70350003
-0.034067139 0.078338623 0.70350003
-0.0042317742 0.078171588 0.70200002
0.0015288861 0.080091804 0.70200002
0.0040933671 0.078886807 0.7026667
0.0072999308 0.078282945 0.70300001
0.0092360051 0.078394294 0.70400006
-0.040773954 0.082128853 0.70300001
-0.0010317789 0.082729988 0.70266676
0.001531064 0.083088964 0.70300007
-0.040831957 0.086097062 0.70400006
-0.00039133392 0.085852467 0.70200002
0.0015288861 0.085852467 0.70200002
0.0034589327 0.08417137 0.70400006
-0.016760821 0.089948438 0.70400006
0.0040975544 0.088580377 0.70333338
-0.015753094 0.091613129 0.70200002
0.0073103146 0.09187413 0.70400006
-0.016743306 0.094660692 0.70325005
-0.013832875 0.093533352 0.70200002
0.0053693266 0.093533352 0.70200002
0.0092228856 0.095589548 0.70300001
-0.021544402 0.097512498 0.70300001
-0.015797975 0.097651206 0.70400006
-0.013832875 0.097373791 0.70200002
0.009209767 0.097373791 0.70200002
-0.033035077 0.099294007 0.70200002
-0.031159177 0.10135841 0.70300001
-0.029194636 0.10121423 0.70200002
-0.025354195 0.099294007 0.70200002
-0.023467356 0.099435456 0.70300001
-0.015775535 0.099435456 0.70300001
-0.01385258 0.10135841 0.70300001
0.011145841 0.099435456 0.70300001
-0.029277811 0.10342827 0.70400006
-0.013872284 0.10342827 0.70400006
0.0092360051 0.10342827 0.70400006
-0.011921139 0.10608961 0.70249999
0.0034491064 0.10697489 0.70200002
-0.010969514 0.10905023 0.70300007
-0.0080837132 0.11097319 0.70300001
-0.010020902 0.11113104 0.70400006
-0.060003512 0.12154944 0.70300001
-0.058080558 0.12251092 0.70300001
-0.079458475 -0.12976438 0.70500004
-0.076620825 -0.12985641 0.70550001
-0.073673196 -0.12976438 0.70500004
-0.069915377 -0.12994844 0.70600003
-0.066970482 -0.12985641 0.70550001
-0.064121895 -0.12994844 0.70600003
-0.061225154 -0.12994844 0.70600003
-0.058328412 -0.12994844 0.70600003
-0.034188889 -0.12994844 0.70600003
-0.028395405 -0.12994844 0.70600003
-0.025498662 -0.12994844 0.70600003
0.11740729 -0.12994844 0.70600003
-0.098882794 -0.1260861 0.70600003
-0.091029033 -0.12783594 0.70500004
-0.088261411 -0.12801726 0.70600003
-0.08536467 -0.12801726 0.70600003
-0.08355169 -0.12723166 0.70700002
-0.0738822 -0.12626471 0.70700002
0.11837287 -0.12705168 0.70600003
-0.11256015 -0.12433081 0.70700002
-0.1096593 -0.12433081 0.70700002
-0.10645644 -0.12590753 0.70500004
-0.094885886 -0.12590753 0.70500004
-0.08717218 -0.12590753 0.70500004
-0.085243754 -0.12590753 0.70500004
0.11950748 -0.12433081 0.70700002
-0.13538283 -0.12205067 0.70500004
-0.10869235 -0.12239692 0.70700002
0.11950748 -0.12239692 0.70700002
-0.056397248 -0.070082426 0.70600003
-0.060174216 -0.067090526 0.70500004
-0.043814331 -0.067138791 0.70550001
-0.062102642 -0.06034103 0.70500004
-0.039016794 -0.062357783 0.70600003
-0.08717218 -0.058412604 0.70500004
-0.079683892 -0.058578312 0.70700002
-0.077749997 -0.058578312 0.70700002
-0.064212717 -0.058578312 0.70700002
-0.040889956 -0.058412604 0.70500004
-0.07001441 -0.054710519 0.70700002
-0.066053055 -0.056564298 0.70600003
-0.064121895 -0.054633137 0.70600003
-0.042818382 -0.054555751 0.70500004
-0.040889956 -0.056484178 0.70500004
-0.042818382 -0.052627325 0.70500004
-0.044746809 -0.050698899 0.70500004
-0.044810276 -0.04690849 0.70600003
-0.042879116 -0.044011749 0.70600003
-0.041005954 -0.043107137 0.70700002
-0.094885886 -0.041056767 0.70500004
-0.092957459 -0.039128341 0.70500004
-0.034187522 -0.040148057 0.70600003
-0.013931399 -0.041173242 0.70700002
-0.091158152 -0.037252683 0.70600003
-0.08536467 -0.035321523 0.70600003
-0.083315328 -0.033343062 0.70500004
-0.033223309 -0.034355942 0.70600003
-0.00039356374 -0.035321523 0.70600003
0.0015354198 -0.033343062 0.70500004
-0.066053055 -0.031459197 0.70600003
-0.075601622 -0.029486211 0.70500004
-0.064031065 -0.029486211 0.70500004
-0.056317363 -0.027557785 0.70500004
-0.035154469 -0.027596876 0.70600003
-0.029402575 -0.027635964 0.70700002
0.005399921 -0.027596876 0.70600003
-0.056477129 -0.025702067 0.70700002
0.0073414664 -0.025702067 0.70700002
-0.049603712 -0.021787949 0.70550001
-0.046675231 -0.021772508 0.70500004
-0.027468678 -0.021834273 0.70700002
-0.10259959 -0.019844081 0.70500004
-0.091029033 -0.019844081 0.70500004
0.01120926 -0.019900376 0.70700002
-0.076674446 -0.016009904 0.70600003
-0.021636341 -0.016009904 0.70600003
0.013124567 -0.017941067 0.70600003
-0.067018636 -0.014078744 0.70600003
-0.064121895 -0.012147582 0.70600003
-0.021666987 -0.014098686 0.70700002
-0.019677266 -0.012130377 0.70500004
-0.01973309 -0.010230891 0.70700002
0.019870235 -0.0073138103 0.70550001
0.024711536 -0.00056061323 0.70600003
0.026642699 0.0013705483 0.70600003
-0.046741441 0.0052328715 0.70600003
-0.03708563 0.0033017099 0.70600003
-0.0293194 0.0052254596 0.70500004
-0.010049372 0.0033017099 0.70600003
0.028573859 0.0052328715 0.70600003
-0.0293194 0.0071538854 0.70500004
-0.0081297085 0.0071741804 0.70700002
-0.075601622 0.011010738 0.70500004
-0.027468678 0.011041974 0.70700002
-0.006827848 0.010378341 0.70566672
0.030505022 0.0090951947 0.70600003
-0.079514831 0.013912553 0.70550001
-0.070931837 0.012966694 0.70650005
-0.067017265 0.013924466 0.70600003
-0.064031065 0.01486759 0.70500004
-0.061225154 0.013923097 0.70600003
-0.028374612 0.013913921 0.70550001
-0.025498662 0.014888679 0.70600003
-0.022586597 0.014878134 0.70550001
-0.01970518 0.014888679 0.70600003
-0.016795849 0.014878134 0.70550001
-0.013891988 0.01486759 0.70500004
-0.010049372 0.012957517 0.70600003
-0.0081297085 0.012975871 0.70700002
-0.002328018 0.014909768 0.70700002
-0.027390974 0.016796015 0.70500004
-0.025462547 0.016796015 0.70500004
-0.00039356374 0.01681984 0.70600003
-0.081502348 0.020682164 0.70600003
-0.070626028 0.020057062 0.70666671
-0.067435883 0.019422194 0.70700002
0.0015354198 0.018724442 0.70500004
-0.081502348 0.022613324 0.70600003
-0.07174477 0.022581296 0.70500004
-0.067018636 0.022613324 0.70600003
-0.062278822 0.022645354 0.70700002
-0.073777705 0.026475647 0.70600003
-0.0711689 0.025819426 0.70566672
-0.067018636 0.026475647 0.70600003
-0.060259573 0.024544485 0.70600003
-0.058245789 0.024509722 0.70500004
-0.0042558867 0.024544485 0.70600003
0.01117755 0.024509722 0.70500004
-0.066146612 0.028447045 0.70700002
-0.07001441 0.030380942 0.70700002
-0.067936063 0.031282067 0.70550001
-0.0042498587 0.032223426 0.70500004
-0.076728061 0.034224514 0.70650005
-0.069915377 0.034200292 0.70600003
-0.067984216 0.037097037 0.70600003
-0.01099935 0.038008705 0.70500004
-0.007149755 0.037084926 0.70574999
-0.025462547 0.041865557 0.70500004
-0.022617243 0.041954629 0.70650005
-0.019705178 0.040960729 0.70600003
-0.017774018 0.039993778 0.70600003
-0.031292148 0.043856099 0.70600003
-0.046675231 0.047650836 0.70500004
-0.042818382 0.047650836 0.70500004
-0.03708563 0.04578726 0.70600003
-0.035204265 0.045852121 0.70700002
-0.064212717 0.049719915 0.70700002
-0.049636811 0.049649589 0.70600003
-0.056477129 0.05165381 0.70700002
0.0054075695 0.053587709 0.70700002
0.011193405 0.053511906 0.70600003
-0.00039356374 0.058338448 0.70600003
0.0015354198 0.057292968 0.70500004
0.015034404 0.059221391 0.70500004
-0.0061958116 0.061323296 0.70700002
-0.0042498587 0.061149817 0.70500004
0.017010951 0.061323296 0.70700002
-0.015865296 0.06519109 0.70700002
-0.013891988 0.065006673 0.70500004
-0.010063605 0.063257195 0.70700002
-0.0071539967 0.063167721 0.70600003
-0.025498662 0.068961203 0.70600003
-0.022586597 0.068912365 0.70550001
-0.019677266 0.068863526 0.70500004
-0.016821025 0.06707751 0.70650005
-0.013891988 0.0669351 0.70500004
0.01891805 0.067030035 0.70600003
-0.027429825 0.070892364 0.70600003
-0.021605693 0.070791952 0.70500004
-0.0293194 0.074648805 0.70500004
0.015034404 0.074648805 0.70500004
0.01891805 0.074754685 0.70600003
-0.039072059 0.076794468 0.70700002
-0.037033103 0.076577231 0.70500004
-0.034140464 0.076577231 0.70500004
0.013105977 0.076577231 0.70500004
0.01603334 0.076740161 0.70650005
0.005392272 0.080434076 0.70500004
0.0073206984 0.080434076 0.70500004
0.0034687594 0.082479328 0.70600003
0.0047545624 0.085657172 0.70566672
-0.040947955 0.088272817 0.70600003
0.0073414664 0.088397853 0.70700002
0.005392272 0.090076208 0.70500004
-0.037033103 0.095861487 0.70500004
0.0073206984 0.093933061 0.70500004
-0.035104677 0.097789913 0.70500004
-0.019677266 0.097789913 0.70500004
-0.017799193 0.098067328 0.70700002
0.011201332 0.097031027 0.70650005
-0.034213789 0.10089609 0.70650005
-0.027390974 0.10164677 0.70500004
-0.025534781 0.10193513 0.70700002
-0.021605693 0.09971834 0.70500004
-0.015842857 0.10179095 0.70600003
0.01120926 0.10193513 0.70700002
-0.031247826 0.10357519 0.70500004
-0.015865296 0.10386902 0.70700002
-0.013921547 0.10669504 0.70650005
-0.00039356374 0.1095156 0.70600003
-0.011997502 0.11160461 0.70700002
-0.006178285 0.1112889 0.70500004
-0.0042619146 0.11160461 0.70700002
-0.056317363 0.12285946 0.70500004
-0.081733227 -0.1274116 0.708
-0.076919138 -0.12745693 0.70825005
-0.072729535 -0.12779391 0.70833331
-0.070162952 -0.12750228 0.70850003
-0.067326806 -0.12763691 0.70925009
-0.058658883 -0.12680048 0.71000004
-0.052832574 -0.12680048 0.71000004
-0.033411544 -0.12777153 0.71000004
-0.031469442 -0.12680048 0.71000004
0.11773989 -0.12837993 0.708
-0.091416396 -0.12450666 0.708
-0.088511445 -0.12450666 0.708
0.11807249 -0.12485838 0.71000004
-0.055668578 -0.072319597 0.70899999
-0.052758161 -0.072319597 0.70900005
-0.058493644 -0.070280962 0.708
-0.048879426 -0.070380233 0.70900005
-0.062454998 -0.068440862 0.70900005
-0.062366907 -0.064471066 0.708
-0.039182585 -0.064562127 0.70900005
-0.079796597 -0.0605978 0.708
-0.06430354 -0.0605978 0.708
-0.062366907 -0.062534429 0.708
-0.037243217 -0.060683392 0.70900005
-0.039182585 -0.058744024 0.70900005
-0.072050072 -0.055756219 0.708
-0.070113435 -0.056724537 0.708
-0.067563362 -0.055459242 0.70833331
-0.040153638 -0.055833604 0.70899999
-0.041063957 -0.052851271 0.708
-0.043030955 -0.04998228 0.70850003
-0.040179905 -0.045200303 0.70950007
-0.039127324 -0.043168109 0.708
-0.037243217 -0.043229081 0.70900005
-0.010092074 -0.043229081 0.70900005
-0.0071772733 -0.043198593 0.70850003
-0.033317428 -0.041231479 0.708
-0.017824369 -0.039294846 0.708
-0.0023378965 -0.039405849 0.71000004
-0.00039579356 -0.037463747 0.71000004
-0.025607014 -0.033532243 0.70900005
-0.058493644 -0.027675053 0.708
-0.03530385 -0.025774773 0.70900005
-0.052720957 -0.022850281 0.70850003
-0.037243217 -0.023835406 0.70900005
-0.04300059 -0.019928524 0.708
-0.041063957 -0.019928524 0.708
-0.025607014 -0.01898562 0.70899999
-0.06430354 -0.014118627 0.708
0.017035011 -0.012181995 0.708
0.01899844 -0.010259833 0.70900005
-0.017862132 -0.0073552821 0.70950007
-0.013990514 -0.00056378951 0.71000004
0.024851546 -0.0025058924 0.71000004
-0.031425115 0.0013763722 0.70900005
-0.04012464 0.0033134012 0.70850003
-0.029444162 0.0033110632 0.708
-0.01007784 0.0052476954 0.708
-0.027585234 0.0072046225 0.71000004
0.030634647 0.0071944753 0.70900005
-0.027546382 0.0091338428 0.70900005
-0.01007784 0.011057592 0.708
-0.0081412075 0.0091209598 0.708
0.030677853 0.011088829 0.71000004
-0.054620378 0.014930856 0.708
-0.027546382 0.013012577 0.70900005
-0.013002493 0.013012578 0.70899999
-0.0062177205 0.013991438 0.70950007
-0.0042739715 0.013012577 0.70900005
0.02675591 0.014951944 0.70900005
-0.006213339 0.016891312 0.70900005
-0.00039579356 0.018857241 0.71000004
-0.0042679431 0.022677386 0.708
0.0034884124 0.022741444 0.71000004
0.0054228664 0.024648784 0.70900005
0.0073726187 0.02662565 0.71000004
-0.0042709573 0.037229083 0.70850003
-0.015887737 0.040107075 0.708
-0.01300961 0.040192049 0.70950007
-0.028514698 0.044042461 0.70899999
-0.01787472 0.042162474 0.71000004
-0.046873849 0.049790237 0.708
-0.04399927 0.0498254 0.70850003
0.0093016019 0.051799927 0.70900005
0.0015463093 0.055757198 0.71000004
0.0034834989 0.055678662 0.70900005
0.013161746 0.055600133 0.708
-0.0042799995 0.059641402 0.71000004
-0.0023329572 0.058545716 0.70850003
-0.010092074 0.061496764 0.70900005
-0.0081412075 0.061410028 0.708
-0.019788912 0.065375499 0.70900005
-0.017824369 0.065283291 0.708
-0.012992641 0.063391402 0.70850003
0.018971642 0.065283291 0.708
-0.021728279 0.067314871 0.70900005
-0.019761002 0.067219928 0.708
-0.02849664 0.070175081 0.70850003
-0.031380795 0.074966453 0.708
-0.029444162 0.073029824 0.708
0.020937808 0.073132969 0.70900005
0.019025236 0.077120326 0.71000004
-0.041063957 0.078839719 0.708
0.010256798 0.079808034 0.708
0.013198927 0.079062432 0.71000004
0.005415218 0.082712986 0.708
0.0073726187 0.082946636 0.71000004
0.0073726187 0.08585979 0.71000004
0.0073518502 0.090459511 0.708
0.0092884824 0.092396148 0.708
0.0092884824 0.094332777 0.708
-0.019788912 0.10028412 0.70900005
0.013180337 0.10028412 0.70900005
-0.033317428 0.10401594 0.708
-0.027507531 0.10401594 0.708
0.005415218 0.10788921 0.708
0.0073518502 0.10595257 0.708
0.0015441314 0.10998096 0.70900005
-0.02766294 -0.12910524 0.71200001
-0.025715368 -0.12910524 0.71200001
0.11662107 -0.12928657 0.71300006
-0.037374541 -0.12804079 0.71150005
-0.035403442 -0.12795149 0.71100003
-0.031513765 -0.12892391 0.71100003
-0.028960412 -0.12780595 0.71200007
0.11629395 -0.12697907 0.71100003
0.11823878 -0.1230894 0.71100003
-0.027624087 -0.031681996 0.71100003
0.0034933258 -0.031681996 0.71100003
0.0054381639 -0.029737158 0.71100003
0.010314746 -0.022962473 0.71200001
0.015183681 -0.016145967 0.71200001
0.017131254 -0.014198393 0.71200001
-0.015955057 -0.0044542602 0.71100003
0.022941709 -0.0044542602 0.71100003
-0.015955057 -0.0025094219 0.71100003
-0.01401022 0.0013802546 0.71100003
-0.012065381 0.0033250931 0.71100003
0.028816694 0.0033297697 0.71200001
-0.0042860275 0.014994122 0.71100003
0.028816694 0.013067639 0.71200001
0.019052031 0.020828636 0.71100003
0.0093409596 0.026700653 0.71200001
-0.0023411894 0.034442507 0.71100003
0.0073830024 0.051946051 0.71100003
-0.0042860275 0.057780564 0.71100003
0.015183681 0.057861831 0.71200001
0.02099687 0.075284109 0.71100003
0.11515325 -0.12787203 0.71600002
0.1169482 -0.12475976 0.71500003
0.11907028 -0.12199649 0.71600002
0.11890398 -0.11987032 0.71500003
0.11907028 -0.11612095 0.71600002
0.1092777 0.12085938 0.71600002
0.11108086 0.12069058 0.71500003
0.099485129 0.12477641 0.71600002
0.11351093 -0.12822922 0.71800005
0.11563573 -0.12644109 0.71900004
0.11547491 -0.12430125 0.71800005
0.11760245 -0.12054092 0.71900004
0.11923658 -0.11824437 0.71700001
0.11850267 -0.11554439 0.71850002
0.11923658 -0.11236063 0.71700001
0.11940289 -0.10858936 0.71800005
0.11923658 0.0013919024 0.71700001
0.11956917 0.0043458669 0.71900004
0.11956917 0.01122939 0.71900004
0.11956917 0.015162833 0.71900004
0.11858581 0.019096276 0.71900004
0.11956917 0.023029717 0.71900004
0.11869279 0.026258498 0.71766669
0.11850267 0.028909763 0.71850002
0.11885817 0.031537849 0.71866673
0.11850267 0.034805823 0.71850002
0.11940289 0.037727579 0.71800005
0.11956917 0.04269693 0.71900004
0.11956917 0.062364139 0.71900004
0.11146926 0.11816797 0.71750003
0.10354658 0.12102818 0.71700001
0.10950664 0.12405582 0.71750003
0.11019344 -0.12894358 0.72200006
0.11292143 -0.1276896 0.72049999
0.1139852 -0.12482061 0.72100002
0.11595739 -0.12087622 0.72100002
0.11776602 -0.12267803 0.72000003
0.11611822 -0.11709402 0.72200006
0.11792959 -0.11890403 0.72100002
0.11792959 -0.11495965 0.72100002
0.11776602 -0.11283075 0.72000003
0.11891431 -0.1100278 0.72100008
0.11990178 -0.10608479 0.72100002
0.11981863 -0.10009806 0.72049999
0.11891431 -0.097209923 0.72100008
0.11990178 -0.089321159 0.72100002
0.11990178 -0.085376769 0.72100002
-0.17814593 -0.042046789 0.72200006
0.11776602 0.0013977264 0.72000003
-0.1778992 0.0033718594 0.72100002
-0.17506154 0.0033741978 0.72150004
0.11776602 0.0053366395 0.72000003
-0.21507213 0.032909032 0.72000003
-0.13525723 -0.069985367 0.72500002
-0.14804474 -0.0639918 0.72450006
-0.14794187 -0.061967246 0.72400004
-0.14715602 -0.058086567 0.72500002
-0.14517289 -0.058086567 0.72500002
-0.14517289 -0.054120298 0.72500002
-0.14318976 -0.052137166 0.72500002
-0.15795356 -0.04813768 0.72450006
-0.15091383 -0.050084855 0.72400004
-0.16279623 -0.04612406 0.72400004
-0.16004638 -0.046187766 0.72500002
-0.17443734 -0.04408269 0.72300005
-0.1689705 -0.042221501 0.72500002
-0.1605937 -0.042105027 0.72300005
-0.14893344 -0.044143658 0.72400004
-0.18086928 -0.040238366 0.72500002
-0.1689705 -0.040238366 0.72500002
-0.16675702 -0.040182862 0.72400004
-0.16367263 -0.040155113 0.72350001
-0.15905482 -0.040238366 0.72500002
-0.15663838 -0.040127363 0.72300005
-0.1605937 -0.03617204 0.72300005
-0.15762721 -0.03617204 0.72300005
-0.16850436 -0.032216713 0.72300005
-0.15466072 -0.024306063 0.72300005
-0.15179981 -0.024322871 0.72350001
