# .PCD v0.7 - Point Cloud Data file format
VERSION 0.7
FIELDS x y z
SIZE 4 4 4
TYPE F F F
COUNT 1 1 1
WIDTH 1356
HEIGHT 1
VIEWPOINT 0 0 0 1 0 0 0
POINTS 1356
DATA ascii
-0.21125558 0.030252026 0.704
-0.15208872 0.030166086 0.70200002
-0.094616711 0.032132011 0.70300001
-0.092627823 0.031147681 0.70249999
-0.060963616 0.030209057 0.70300001
-0.059918154 0.032086305 0.70200002
-0.033035073 0.030166086 0.70200002
-0.22617885 0.034992222 0.70249999
-0.21495351 0.035040662 0.70350003
-0.096539654 0.03501644 0.70300001
-0.054901343 0.034712095 0.70333338
-0.22537768 0.03693803 0.70300001
-0.22345471 0.03693803 0.70300001
-0.22025654 0.037846964 0.70200002
-0.21737619 0.037846964 0.70200002
-0.21437861 0.037241008 0.7026667
-0.098602675 0.037954789 0.704
-0.052311685 0.037900876 0.70300001
-0.050460409 0.037954789 0.704
-0.10437975 0.041806169 0.704
-0.10038558 0.03982383 0.70300001
-0.077200137 0.039767183 0.70200002
-0.050388731 0.040783942 0.70300001
-0.10423148 0.043669742 0.70300001
-0.077200137 0.043607622 0.70200002
-0.073359698 0.043607622 0.70200002
-0.069519259 0.043607622 0.70200002
-0.21502052 0.046852138 0.7026667
-0.21161553 0.047448065 0.70200002
-0.20918053 0.046586603 0.70350003
-0.10630544 0.045657553 0.704
-0.079233058 0.047515653 0.70300001
-0.075279914 0.045527846 0.70200002
-0.073359698 0.045527846 0.70200002
-0.070479363 0.045527846 0.70200002
-0.067599036 0.047448065 0.70200002
-0.21737619 0.049368285 0.70200002
-0.21449587 0.049368285 0.70200002
-0.21110484 0.04947377 0.70350003
-0.10408322 0.049368285 0.70200002
-0.079120353 0.049368285 0.70200002
-0.067599036 0.049368285 0.70200002
-0.22889751 0.051288504 0.70200002
-0.22580402 0.051953841 0.70233339
-0.2157629 0.053284522 0.70300001
-0.10052837 0.053360317 0.704
-0.084881015 0.051288504 0.70200002
-0.082146361 0.05234199 0.70324999
-0.064857677 0.051398091 0.70350003
-0.06100766 0.05332242 0.70350003
-0.057997935 0.051288504 0.70200002
-0.096402332 0.055128943 0.70200002
-0.085001931 0.055207476 0.70300001
-0.22889751 0.058969382 0.70200002
-0.22505708 0.058969382 0.70200002
-0.20244609 0.058132537 0.70350003
-0.20052175 0.058133908 0.70350003
-0.091732264 0.058091909 0.70300001
-0.088721462 0.058969382 0.70200002
-0.085902944 0.058051273 0.70249999
-0.2023022 0.060976341 0.70300001
-0.090770788 0.060976341 0.70300001
-0.088847838 0.062899299 0.70300001
-0.085642911 0.062259227 0.70300001
-0.088974223 0.064914457 0.704
-0.085963406 0.064822249 0.70300001
-0.20903257 0.068668164 0.70300001
-0.189916 -0.14173588 0.70700002
-0.19571769 -0.13980198 0.70700002
-0.18604822 -0.13980198 0.70700002
-0.18411432 -0.13786809 0.70700002
-0.20287775 -0.13362122 0.70499998
-0.050675441 -0.1320664 0.70700002
-0.17780821 -0.12976436 0.70499998
-0.052534919 -0.12994842 0.70599997
-0.049602337 -0.13082197 0.70550001
-0.042818379 -0.12976436 0.70499998
-0.041005954 -0.1301325 0.70700002
-0.20702782 -0.12801726 0.70599997
-0.17780821 -0.12783593 0.70499998
-0.052609336 -0.12723166 0.70700002
-0.04998393 -0.12743399 0.70633334
-0.046807643 -0.12819859 0.70700002
-0.043844692 -0.12801726 0.70599997
-0.040010005 -0.12714098 0.70649999
-0.20925498 -0.1243308 0.70700002
-0.17528704 -0.12424287 0.70649999
-0.049293336 -0.12473913 0.70566672
-0.046741433 -0.12511915 0.70599997
-0.044146311 -0.12538195 0.70566672
-0.040889952 -0.12590751 0.70499998
-0.20866302 -0.12205065 0.70499998
-0.16828534 -0.121173 0.70550001
-0.054543231 -0.1223969 0.70700002
-0.052534919 -0.1212582 0.70599997
-0.049567871 -0.12012223 0.70499998
-0.046807643 -0.12046301 0.70700002
-0.043875061 -0.12231034 0.70649999
-0.041005954 -0.1223969 0.70700002
-0.16454227 -0.11836145 0.70599997
-0.076728061 -0.11844528 0.70649999
-0.05446608 -0.11836145 0.70599997
-0.046675228 -0.11819381 0.70499998
-0.044810276 -0.11836145 0.70599997
-0.20538718 -0.11659522 0.70700002
-0.2031655 -0.11449913 0.70599997
-0.16346154 -0.11538363 0.70550001
-0.16067995 -0.11449913 0.70599997
-0.08355169 -0.11466132 0.70700002
-0.079683892 -0.11659522 0.70700002
-0.077749997 -0.11659522 0.70700002
-0.073673196 -0.11433695 0.70499998
-0.070981354 -0.11466132 0.70700002
-0.056477129 -0.11466132 0.70700002
-0.052460507 -0.11626539 0.70499998
-0.049672648 -0.11651276 0.70649999
-0.043846063 -0.11546609 0.70599997
-0.1995855 -0.11272742 0.70700002
-0.19709246 -0.11240853 0.70499998
-0.16045237 -0.11240853 0.70499998
-0.15897366 -0.11272742 0.70700002
-0.08355169 -0.11272742 0.70700002
-0.076619446 -0.11248825 0.70550001
-0.0738822 -0.11272742 0.70700002
-0.070930474 -0.1126477 0.70649999
-0.068080507 -0.11272742 0.70700002
-0.054388933 -0.11240853 0.70499998
-0.049672648 -0.1126477 0.70649999
-0.046675228 -0.11240853 0.70499998
-0.043843329 -0.11256798 0.70599997
-0.19709246 -0.11048011 0.70499998
-0.15738641 -0.10929805 0.70566672
-0.066053048 -0.10870565 0.70599997
-0.064031065 -0.10855167 0.70499998
-0.061203122 -0.10963206 0.70574999
-0.058411025 -0.10982658 0.70700002
-0.055430297 -0.10966986 0.70599997
-0.052609336 -0.10885963 0.70700002
-0.049638174 -0.10870565 0.70599997
-0.046675228 -0.10855167 0.70499998
-0.043876432 -0.10974822 0.70649999
-0.016797215 -0.10959356 0.70550001
-0.013931399 -0.11079353 0.70700002
-0.19709246 -0.10662325 0.70499998
-0.085364662 -0.10677448 0.70599997
-0.058245786 -0.10662325 0.70499998
-0.056317363 -0.10662325 0.70499998
-0.048603654 -0.10662325 0.70499998
-0.044873748 -0.10692573 0.70700002
-0.019705176 -0.10677448 0.70599997
-0.013931399 -0.10692573 0.70700002
-0.011997501 -0.10692573 0.70700002
-0.19737202 -0.10484333 0.70599997
-0.15466708 -0.10469483 0.70499998
-0.15081023 -0.10276639 0.70499998
-0.085485585 -0.10305794 0.70700002
-0.061311871 -0.10499184 0.70700002
-0.055431664 -0.10484333 0.70599997
-0.052609336 -0.10499184 0.70700002
-0.049340207 -0.10425002 0.70633334
-0.046774536 -0.10395201 0.70649999
-0.021605693 -0.10276639 0.70499998
-0.016807068 -0.10484333 0.70599997
-0.013931399 -0.10499184 0.70700002
-0.011963561 -0.10276639 0.70499998
-0.20287775 -0.10083797 0.70499998
-0.14909299 -0.100981 0.70599997
-0.082146972 -0.10033729 0.70600003
-0.07957118 -0.099049844 0.70599997
-0.058245786 -0.10083797 0.70499998
-0.05535315 -0.10083797 0.70499998
-0.052534919 -0.100981 0.70599997
-0.049672648 -0.10105252 0.70649999
-0.046807643 -0.10112403 0.70700002
-0.022617243 -0.10008694 0.70649999
-0.013891988 -0.10083797 0.70499998
-0.14695339 -0.097945333 0.70499998
-0.076565832 -0.098909549 0.70499998
-0.07088232 -0.097118676 0.70599997
-0.064995274 -0.096981116 0.70499998
-0.058245786 -0.096981116 0.70499998
-0.055431664 -0.097118676 0.70599997
-0.052534919 -0.097118676 0.70599997
-0.049602337 -0.097049892 0.70550001
-0.046741433 -0.0980829 0.70599997
-0.022603288 -0.097118676 0.70599997
-0.013891988 -0.096981116 0.70499998
-0.07088232 -0.09518753 0.70599997
-0.065959491 -0.095052697 0.70499998
-0.062190723 -0.093256362 0.70599997
-0.048603654 -0.09312427 0.70499998
-0.046807643 -0.093388453 0.70700002
-0.025516719 -0.094287992 0.70649999
-0.015820414 -0.09312427 0.70499998
-0.013891988 -0.095052697 0.70499998
-0.20509666 -0.091325194 0.70599997
-0.14909299 -0.091325194 0.70599997
-0.064121887 -0.091325194 0.70599997
-0.046741433 -0.091325194 0.70599997
-0.027468678 -0.091454558 0.70700002
-0.2009493 -0.087338991 0.70499998
-0.17214492 -0.088366516 0.70550001
-0.17021513 -0.088366516 0.70550001
-0.15273866 -0.087338991 0.70499998
-0.068080507 -0.087586768 0.70700002
-0.065040693 -0.088366516 0.70550001
-0.061138421 -0.089267418 0.70499998
-0.058245786 -0.089267418 0.70499998
-0.048741538 -0.087586768 0.70700002
-0.028374609 -0.088366516 0.70550001
-0.015842855 -0.088429824 0.70599997
-0.19930318 -0.085531712 0.70599997
-0.17516232 -0.085531712 0.70599997
-0.16670924 -0.085652865 0.70700002
-0.15510586 -0.085652865 0.70700002
-0.10958242 -0.085592285 0.70649999
-0.10660743 -0.085531712 0.70599997
-0.066146612 -0.085652865 0.70700002
-0.052460507 -0.085410565 0.70499998
-0.029319396 -0.085410565 0.70499998
-0.01774884 -0.085410565 0.70499998
-0.18411432 -0.081785075 0.70700002
-0.18218042 -0.081785075 0.70700002
-0.17780821 -0.083482139 0.70499998
-0.16346154 -0.083541349 0.70550001
-0.16090755 -0.081785075 0.70700002
-0.15897366 -0.081785075 0.70700002
-0.11618091 -0.082577132 0.70550001
-0.097915843 -0.082633607 0.70599997
-0.067113563 -0.082752019 0.70700002
-0.065959491 -0.083482139 0.70499998
-0.050675441 -0.08371897 0.70700002
-0.033270366 -0.081785075 0.70700002
-0.017774016 -0.08166939 0.70599997
-0.010056488 -0.082692817 0.70649999
-0.0081182094 -0.082633607 0.70599997
0.0053999205 -0.08166939 0.70599997
0.0092753628 -0.08371897 0.70700002
-0.1937838 -0.07985118 0.70700002
-0.18192272 -0.07973823 0.70599997
-0.11836182 -0.07985118 0.70700002
-0.067984208 -0.07973823 0.70599997
-0.050675441 -0.07985118 0.70700002
-0.01004937 -0.07973823 0.70599997
-0.007151261 -0.07973823 0.70599997
-0.00039356371 -0.07973823 0.70599997
-0.096882969 -0.076787747 0.70550001
-0.07001441 -0.075983383 0.70700002
-0.067887917 -0.07769686 0.70499998
-0.052572127 -0.076895222 0.70649999
-0.01774884 -0.07769686 0.70499998
-0.010063605 -0.075983383 0.70700002
-0.0042619146 -0.077917278 0.70700002
-0.11836182 -0.072115593 0.70700002
-0.11609857 -0.073840007 0.70499998
-0.097847179 -0.072926797 0.70550001
-0.064121887 -0.073944747 0.70599997
-0.061182469 -0.073892377 0.70550001
-0.054388933 -0.073840007 0.70499998
-0.039072055 -0.072115593 0.70700002
-0.017799193 -0.074049488 0.70700002
-0.01004937 -0.072013587 0.70599997
0.026642695 -0.072013587 0.70599997
-0.11609857 -0.069983155 0.70499998
-0.058245786 -0.071911581 0.70499998
-0.054388933 -0.071911581 0.70499998
-0.039072055 -0.07018169 0.70700002
-0.017761428 -0.070997 0.70550001
-0.01004937 -0.070082419 0.70599997
-0.11609857 -0.066126302 0.70499998
-0.096814305 -0.068054728 0.70499998
-0.016807068 -0.067187048 0.70599997
-0.13663647 -0.064334467 0.70649999
-0.11802699 -0.064197883 0.70499998
-0.096814305 -0.064197883 0.70499998
-0.095155068 -0.064380005 0.70700002
0.030461809 -0.064197883 0.70499998
-0.13943717 -0.062357776 0.70599997
-0.1334544 -0.062269449 0.70499998
-0.13083887 -0.062401939 0.70649999
-0.12697381 -0.062401939 0.70649999
-0.12416352 -0.062446102 0.70700002
-0.12029573 -0.062446102 0.70700002
-0.11802699 -0.062269449 0.70499998
-0.097778514 -0.06130524 0.70499998
-0.094054893 -0.060426615 0.70599997
-0.082467921 -0.060426615 0.70599997
-0.07957118 -0.060426615 0.70599997
-0.077749997 -0.060512207 0.70700002
-0.027468678 -0.062446102 0.70700002
-0.023567501 -0.060426615 0.70599997
-0.01774884 -0.062269449 0.70499998
-0.0061870473 -0.060426615 0.70599997
0.042151611 -0.060512207 0.70700002
-0.097915843 -0.058495454 0.70599997
-0.094054893 -0.058495454 0.70599997
-0.08813639 -0.0584126 0.70499998
-0.085364662 -0.058495454 0.70599997
-0.077640019 -0.058495454 0.70599997
-0.017774016 -0.058495454 0.70599997
-0.14146847 -0.055638772 0.70649999
-0.0042558862 -0.05656429 0.70599997
-0.0081067104 -0.052627321 0.70499998
-0.058245786 -0.048770469 0.70499998
-0.05446608 -0.050770812 0.70599997
-0.049674019 -0.049841188 0.70649999
-0.013931399 -0.048908826 0.70700002
-0.01004937 -0.050770812 0.70599997
-0.1411681 -0.046842042 0.70499998
-0.075762473 -0.045974761 0.70649999
-0.060174212 -0.046842042 0.70499998
-0.052460507 -0.046842042 0.70499998
-0.046807643 -0.045041036 0.70700002
0.040217713 -0.046974931 0.70700002
-0.1411681 -0.04491362 0.70499998
-0.13923967 -0.042985193 0.70499998
-0.1035638 -0.042985193 0.70499998
-0.093987599 -0.043015677 0.70550001
-0.091029026 -0.042985193 0.70499998
-0.077530049 -0.042985193 0.70499998
-0.062102634 -0.042985193 0.70499998
-0.052534919 -0.043046162 0.70599997
-0.049567871 -0.04491362 0.70499998
-0.046675228 -0.042985193 0.70499998
-0.015820414 -0.04491362 0.70499998
-0.13943717 -0.041115001 0.70599997
-0.1334544 -0.041056763 0.70499998
-0.13065505 -0.041085884 0.70550001
-0.10950418 -0.041115001 0.70599997
-0.10675844 -0.041173238 0.70700002
-0.10363793 -0.041085884 0.70550001
-0.10067116 -0.041056763 0.70499998
-0.097778514 -0.041056763 0.70499998
-0.093987599 -0.041085884 0.70550001
-0.091029026 -0.041056763 0.70499998
-0.064121887 -0.041115001 0.70599997
-0.060344923 -0.039239343 0.70700002
-0.058328405 -0.03918384 0.70599997
-0.046675228 -0.039128341 0.70499998
-0.044746805 -0.041056763 0.70499998
-0.015865296 -0.039239343 0.70700002
-0.058245786 -0.037199914 0.70499998
-0.043844692 -0.037252679 0.70599997
-0.040947951 -0.037252679 0.70599997
-0.054543231 -0.033437654 0.70700002
-0.052609336 -0.034404602 0.70700002
-0.049960952 -0.034677796 0.70600003
-0.046675228 -0.035271488 0.70499998
-0.043876432 -0.035346534 0.70649999
-0.040322654 -0.034050755 0.70633334
0.049816631 -0.035321519 0.70599997
-0.048741538 -0.031503756 0.70700002
-0.046741433 -0.031459194 0.70599997
-0.043782592 -0.031414635 0.70499998
-0.041005954 -0.031503756 0.70700002
-0.013891988 -0.031414635 0.70499998
-0.18218042 -0.027635962 0.70700002
-0.17419809 -0.02759687 0.70599997
-0.049638174 -0.029528033 0.70599997
-0.046741433 -0.029528033 0.70599997
-0.043844692 -0.029528033 0.70599997
-0.039967872 -0.028551994 0.70574999
-0.037111893 -0.028583366 0.70649999
-0.031247823 -0.027557783 0.70499998
0.0092622433 -0.02759687 0.70599997
0.013124566 -0.02759687 0.70599997
-0.052609336 -0.025702067 0.70700002
-0.1935097 -0.021803387 0.70599997
-0.19157854 -0.021803387 0.70599997
-0.18771622 -0.023734549 0.70599997
-0.16937156 -0.022770338 0.70599997
-0.15488647 -0.021803387 0.70599997
-0.15123807 -0.023768168 0.70700002
-0.14930418 -0.023768168 0.70700002
-0.07001441 -0.021834271 0.70700002
-0.067887917 -0.021772506 0.70499998
-0.056397244 -0.023734549 0.70599997
-0.0042558862 -0.023734549 0.70599997
0.0015354197 -0.02370093 0.70499998
0.038229663 -0.021803387 0.70599997
-0.16840459 -0.019872226 0.70599997
-0.15659551 -0.019844079 0.70499998
-0.0738822 -0.019900376 0.70700002
0.034318659 -0.019844079 0.70499998
-0.19737202 -0.017941065 0.70599997
-0.16369186 -0.016987508 0.70649993
-0.16056615 -0.016964145 0.70550001
-0.0081297085 -0.016032582 0.70700002
0.018891254 -0.017915653 0.70499998
0.030505016 -0.017941065 0.70599997
-0.1377008 -0.012164788 0.70700002
-0.077530049 -0.014058801 0.70499998
-0.077640019 -0.01021642 0.70599997
-0.19737202 -0.0082852589 0.70599997
-0.13576689 -0.006363098 0.70700002
-0.079683892 -0.006363098 0.70700002
-0.077640027 -0.0073210457 0.70599997
-0.0061782841 -0.0063450974 0.70499998
-0.18745032 -0.0044166711 0.70499998
-0.13943717 -0.0044229361 0.70599997
-0.0061958116 -0.0044292011 0.70700002
-0.18359348 -0.00055981911 0.70499998
-0.14329951 -0.00056061317 0.70599997
-0.13963468 -0.002495304 0.70700002
-0.085364662 -0.0024917745 0.70599997
-0.2144483 0.0013686068 0.70499998
-0.18385389 0.0013705482 0.70599997
-0.14350249 0.0013724895 0.70700002
-0.18218042 0.0033063863 0.70700002
-0.17999157 0.005232871 0.70599997
-0.1451278 0.0042635845 0.70550001
-0.075601615 0.004261246 0.70499998
-0.17831263 0.0071741799 0.70700002
-0.14309654 0.007153885 0.70499998
-0.075601615 0.007153885 0.70499998
-0.017799193 0.0071741799 0.70700002
-0.17587978 0.011010737 0.70499998
-0.14156859 0.0091080768 0.70700002
-0.13923967 0.011010737 0.70499998
-0.079458475 0.011010737 0.70499998
-0.077640019 0.0090951929 0.70599997
-0.023534119 0.0090823108 0.70499998
-0.17444484 0.012975871 0.70700002
-0.17226692 0.014888678 0.70599997
-0.13943717 0.012957516 0.70599997
-0.13731125 0.014867589 0.70499998
-0.10675844 0.014909768 0.70700002
-0.1038576 0.014909768 0.70700002
-0.081617787 0.012975871 0.70700002
-0.023534119 0.012939163 0.70499998
-0.17057705 0.016843664 0.70700002
-0.1377008 0.016843664 0.70700002
-0.082469292 0.016819838 0.70599997
-0.060259566 0.016819838 0.70599997
-0.054543231 0.016843664 0.70700002
-0.16840459 0.018750999 0.70599997
-0.16647343 0.020682162 0.70599997
-0.10675844 0.01877756 0.70700002
-0.1038576 0.01877756 0.70700002
-0.085243754 0.019688653 0.70499998
-0.060259566 0.019717949 0.70599997
-0.054543231 0.01877756 0.70700002
-0.023534119 0.020652866 0.70499998
-0.087295823 0.022613322 0.70599997
-0.062102634 0.022581292 0.70499998
-0.023534119 0.022581292 0.70499998
-0.16261111 0.026475644 0.70599997
-0.14502496 0.024509719 0.70499998
-0.093221165 0.026513146 0.70700002
-0.091029026 0.026438143 0.70499998
-0.089353375 0.024579251 0.70700002
-0.064121887 0.024544485 0.70599997
-0.062190723 0.026475644 0.70599997
-0.02549866 0.026475644 0.70599997
-0.093221165 0.028447045 0.70700002
-0.062190723 0.028406806 0.70599997
-0.027468678 0.028447045 0.70700002
-0.15852395 0.030294998 0.70499998
-0.097088963 0.032314837 0.70700002
-0.095020473 0.030337969 0.70599997
-0.058411025 0.032314837 0.70700002
-0.048741538 0.030380944 0.70700002
-0.031292144 0.030337969 0.70599997
-0.098742731 0.034151848 0.70499998
-0.052609336 0.034248736 0.70700002
-0.10289065 0.03811653 0.70700002
-0.10067116 0.038008701 0.70499998
-0.098742731 0.036080275 0.70499998
-0.052609336 0.036182631 0.70700002
-0.10274512 0.039993774 0.70599997
-0.10660743 0.043856096 0.70599997
-0.050675441 0.043918218 0.70700002
-0.10660743 0.047718421 0.70599997
-0.076674432 0.047718421 0.70599997
-0.0738822 0.047786012 0.70700002
-0.07083144 0.047684625 0.70550001
-0.10660743 0.049649581 0.70599997
-0.077640019 0.049649581 0.70599997
-0.069816343 0.049579255 0.70499998
-0.054388933 0.049579255 0.70499998
-0.16067995 0.053511906 0.70599997
-0.15703976 0.053587705 0.70700002
-0.10259958 0.051507682 0.70499998
-0.079627536 0.052584223 0.70649999
-0.067984208 0.051580742 0.70599997
-0.064031065 0.053436112 0.70499998
-0.058328405 0.053511906 0.70599997
-0.056397244 0.051580742 0.70599997
-0.099022858 0.0555216 0.70700002
-0.083433501 0.055443067 0.70599997
-0.14543638 0.057455495 0.70700002
-0.14156859 0.057455495 0.70700002
-0.095020473 0.057374224 0.70599997
-0.085364662 0.059305385 0.70599997
-0.08355169 0.057455495 0.70700002
-0.15102415 0.061236549 0.70599997
-0.14812741 0.061236549 0.70599997
-0.14523067 0.061236549 0.70599997
-0.14233392 0.061236549 0.70599997
-0.10869234 0.061323293 0.70700002
-0.099022858 0.061323293 0.70700002
-0.083433501 0.061236549 0.70599997
-0.12416352 0.064224139 0.70700002
-0.12222963 0.064224139 0.70700002
-0.10965929 0.064224139 0.70700002
-0.10675844 0.064224139 0.70700002
-0.10095676 0.065191083 0.70700002
-0.098192386 0.064424418 0.70566672
-0.093221165 0.065191083 0.70700002
-0.091158144 0.064133286 0.70599997
-0.08355169 0.063257188 0.70700002
-0.081386894 0.068863519 0.70499998
-0.19336367 -0.14213681 0.70899999
-0.18824799 -0.14193635 0.708
-0.19986778 -0.13806309 0.708
-0.20180441 -0.13612644 0.708
-0.18269578 -0.13631871 0.70899999
-0.20596819 -0.13243999 0.70899999
-0.18062894 -0.13331626 0.70850003
-0.052683745 -0.13225318 0.708
-0.049919412 -0.13456887 0.70999998
-0.04593727 -0.13234659 0.70850003
-0.20790754 -0.13050061 0.70899999
-0.17687768 -0.13050061 0.70899999
-0.054620378 -0.13031656 0.708
-0.03912732 -0.13031656 0.708
-0.20955096 -0.1264433 0.708
-0.175908 -0.12759157 0.70899999
-0.055318266 -0.12720881 0.70866662
-0.03912732 -0.12837991 0.708
-0.037243217 -0.12662189 0.70899999
-0.17227189 -0.12485836 0.70999998
-0.054774668 -0.12485836 0.70999998
-0.052683745 -0.12450666 0.708
-0.043000586 -0.12450666 0.708
-0.040150903 -0.12468252 0.70899999
-0.20984693 -0.12080378 0.70899999
-0.16729873 -0.12186002 0.70949996
-0.055668578 -0.12177482 0.70899999
-0.044029638 -0.12080377 0.70899999
-0.039182585 -0.12274314 0.70899999
-0.20984693 -0.11886441 0.70899999
-0.16353242 -0.11806101 0.70999998
-0.079796597 -0.11869676 0.708
-0.074091196 -0.11886441 0.70899999
-0.058658879 -0.11903206 0.70999998
-0.056636892 -0.11789335 0.70899999
-0.043000586 -0.11869676 0.708
-0.041121952 -0.11789335 0.70899999
-0.15942337 -0.11498567 0.70899999
-0.081848666 -0.11692505 0.70899999
-0.075923331 -0.11676013 0.708
-0.074091196 -0.11692505 0.70899999
-0.067255259 -0.11490458 0.70850003
-0.06430354 -0.1148235 0.708
-0.061527982 -0.11506677 0.70949996
-0.058658879 -0.11514785 0.70999998
-0.054620378 -0.11676013 0.708
-0.046873849 -0.11676013 0.708
-0.04306132 -0.11692505 0.70899999
-0.041063953 -0.1148235 0.708
-0.016881227 -0.11498567 0.70899999
-0.013990513 -0.11514785 0.70999998
-0.20208944 -0.11207663 0.70899999
-0.15576401 -0.11126366 0.70999998
-0.085727409 -0.11110695 0.70899999
-0.066333726 -0.1130463 0.70899999
-0.06430354 -0.11288686 0.708
-0.06157203 -0.11320575 0.70999998
-0.056557011 -0.11288686 0.708
-0.041121952 -0.11110695 0.70899999
-0.01978891 -0.11110695 0.70899999
-0.015932616 -0.11320575 0.70999998
-0.01203144 -0.11110695 0.70899999
-0.19986778 -0.11095024 0.708
-0.19793116 -0.1090136 0.708
-0.15554462 -0.10916758 0.70899999
-0.085727409 -0.10916758 0.70899999
-0.056557011 -0.1090136 0.708
-0.043122053 -0.10932154 0.70999998
-0.019816821 -0.10932154 0.70999998
-0.012991272 -0.10909059 0.70850003
-0.20029123 -0.10633413 0.70949996
-0.15349695 -0.10618427 0.70850003
-0.085606493 -0.10514034 0.708
-0.058493644 -0.10514034 0.708
-0.045064159 -0.10543735 0.70999998
-0.04306132 -0.1072282 0.70899999
-0.021728277 -0.10625853 0.70899999
-0.019761 -0.10514034 0.708
-0.012014471 -0.10514034 0.708
-0.01009919 -0.10633278 0.70949996
-0.20374106 -0.10320371 0.708
-0.14951536 -0.10320371 0.708
-0.044029638 -0.10334947 0.70899999
-0.023667647 -0.10334947 0.70899999
-0.010092073 -0.10334947 0.70899999
-0.20567769 -0.10126707 0.708
-0.14799561 -0.10155313 0.70999998
-0.14605349 -0.099611036 0.70999998
-0.085848317 -0.10058208 0.70999998
-0.083669864 -0.09933044 0.708
-0.045064159 -0.10155313 0.70999998
-0.044029638 -0.099470735 0.70899999
-0.025643129 -0.099611036 0.70999998
-0.023701027 -0.10155313 0.70999998
-0.012014471 -0.10029875 0.708
-0.1458478 -0.097531363 0.70899999
-0.080022007 -0.097668923 0.70999998
-0.077000253 -0.097531363 0.70899999
-0.074091196 -0.097531363 0.70899999
-0.045064159 -0.097668923 0.70999998
-0.025643129 -0.097668923 0.70999998
-0.012048409 -0.097668923 0.70999998
-0.14799561 -0.093784727 0.70999998
-0.1458478 -0.095592007 0.70899999
-0.080022007 -0.095726833 0.70999998
-0.076891646 -0.095457181 0.708
-0.073986702 -0.095457181 0.708
-0.070311494 -0.093784727 0.70999998
-0.067303412 -0.093652636 0.70899999
-0.06430354 -0.093520544 0.708
-0.044937219 -0.095457181 0.708
-0.027546382 -0.095592007 0.70899999
-0.013001124 -0.094622321 0.70899999
-0.067304775 -0.091713265 0.70899999
-0.045064159 -0.091842614 0.70999998
-0.029485747 -0.091713265 0.70899999
-0.013970809 -0.091713265 0.70899999
-0.20374106 -0.089647286 0.708
-0.1516659 -0.089773901 0.70899999
-0.066240169 -0.089647286 0.708
-0.048810478 -0.089647286 0.708
-0.031380791 -0.087710649 0.708
-0.02944416 -0.089647286 0.708
-0.013336577 -0.088564493 0.70966667
-0.17518504 -0.084074207 0.70999998
-0.16912021 -0.085895166 0.70899999
-0.11287855 -0.085895166 0.70899999
-0.10526934 -0.086016312 0.70999998
-0.070311494 -0.084074207 0.70999998
-0.068176799 -0.085774019 0.708
-0.050747115 -0.085774019 0.708
-0.035353642 -0.084074207 0.70999998
-0.031380791 -0.085774019 0.708
-0.015910177 -0.085895166 0.70899999
-0.013010977 -0.085955739 0.70949996
-0.01007784 -0.085774019 0.708
-0.0081527056 -0.085895166 0.70899999
-0.19599451 -0.081900753 0.708
-0.1807564 -0.082016431 0.70899999
-0.17906925 -0.082132109 0.70999998
-0.1766282 -0.083837382 0.708
-0.16694504 -0.083837382 0.708
-0.16353242 -0.082132109 0.70999998
-0.11869664 -0.082016431 0.70899999
-0.097226284 -0.083837382 0.708
-0.095558837 -0.082132109 0.70999998
-0.068369389 -0.082132109 0.70999998
-0.049849104 -0.082986116 0.70899999
-0.033317424 -0.083837382 0.708
-0.015887735 -0.083837382 0.708
-0.012672241 -0.083269872 0.70866662
-0.0062089562 -0.082926907 0.70850003
0.020937806 -0.083955795 0.70899999
-0.18741262 -0.078082591 0.70850003
-0.18437473 -0.078027487 0.708
-0.1807564 -0.08007706 0.70899999
-0.11869664 -0.078137688 0.70899999
-0.094776869 -0.079430602 0.70900005
-0.0722536 -0.078247897 0.70999998
-0.070113435 -0.078995809 0.708
-0.048879419 -0.08007706 0.70899999
-0.035254057 -0.078995809 0.708
-0.015932616 -0.080190003 0.70999998
-0.01203144 -0.08007706 0.70899999
-0.01007784 -0.078027487 0.708
-0.0071728909 -0.078027487 0.708
-0.0042679431 -0.079964124 0.708
-0.0023346036 -0.08007706 0.70899999
-0.11852924 -0.07609085 0.708
-0.095289655 -0.07609085 0.708
-0.037243217 -0.076198325 0.70899999
0.046149582 -0.076198325 0.70899999
0.049060002 -0.076198325 0.70899999
-0.11869664 -0.074258961 0.70899999
-0.097226284 -0.074154221 0.708
-0.095491543 -0.073341638 0.70949996
-0.066333726 -0.074258961 0.70899999
-0.060515627 -0.07231959 0.70899999
-0.052795365 -0.073341638 0.70949996
-0.037190691 -0.074154221 0.708
-0.010106307 -0.074363694 0.70999998
0.04621467 -0.072421595 0.70999998
0.049093917 -0.072370589 0.70949996
0.052638572 -0.07300096 0.70933336
0.055925187 -0.072421595 0.70999998
-0.11869664 -0.070380218 0.70899999
-0.097226284 -0.070280954 0.708
-0.095558837 -0.07047949 0.70999998
-0.015932616 -0.07047949 0.70999998
-0.12080617 -0.068537384 0.70999998
-0.11852924 -0.06737601 0.708
-0.097226284 -0.066407695 0.708
-0.094776869 -0.067794405 0.70900005
-0.040457074 -0.067115769 0.70866662
-0.015910177 -0.066501491 0.70899999
-0.012048409 -0.068537384 0.70999998
-0.010092073 -0.066501491 0.70899999
0.028654804 -0.068344325 0.708
0.044210214 -0.068440855 0.70899999
0.046149582 -0.068440855 0.70899999
0.048156779 -0.068537384 0.70999998
-0.13983218 -0.064471066 0.708
-0.13333519 -0.06460765 0.70949996
-0.13051668 -0.064653181 0.70999998
-0.12742379 -0.064562127 0.70899999
-0.12451475 -0.064562127 0.70899999
-0.12160707 -0.064562127 0.70899999
-0.093484871 -0.064562127 0.70899999
-0.015932616 -0.064653181 0.70999998
0.040331479 -0.064562127 0.70899999
0.043179546 -0.064471066 0.708
0.046149582 -0.064562127 0.70899999
0.048156779 -0.064653181 0.70999998
-0.14176883 -0.060597796 0.708
-0.1224025 -0.062534429 0.708
-0.097363606 -0.062622756 0.70899999
-0.095558837 -0.062711075 0.70999998
-0.088637829 -0.062622756 0.70899999
-0.085848317 -0.062711075 0.70999998
-0.015932616 -0.060768977 0.70999998
0.040274598 -0.060597796 0.708
0.043583632 -0.062006649 0.70933336
0.046149582 -0.060683388 0.70899999
0.049127828 -0.060768977 0.70999998
0.052040979 -0.060768977 0.70999998
-0.1421693 -0.058826875 0.70999998
-0.01978891 -0.058744021 0.70899999
-0.076137796 -0.056884769 0.70999998
-0.016878493 -0.05680465 0.70899999
-0.0062133381 -0.054865282 0.70899999
0.043271713 -0.056844711 0.70949996
-0.052758157 -0.052925918 0.70899999
-0.050890468 -0.053000566 0.70999998
-0.010106307 -0.053000566 0.70999998
-0.046873849 -0.048978005 0.708
-0.049813267 -0.047074594 0.70850003
-0.064485185 -0.043290053 0.70999998
-0.049778797 -0.043168109 0.708
-0.045000687 -0.043229081 0.70899999
-0.11586857 -0.039378095 0.70949996
-0.081964105 -0.039405845 0.70999998
-0.079050958 -0.039405845 0.70999998
-0.064485185 -0.039405845 0.70999998
-0.062366903 -0.039294846 0.708
-0.043686617 -0.039978299 0.70866662
-0.061442632 -0.037384596 0.70850003
-0.056557011 -0.037358213 0.708
-0.039237849 -0.037463743 0.70999998
-0.015910177 -0.037410978 0.70899999
-0.054620378 -0.03542158 0.708
-0.039237849 -0.035521641 0.70999998
-0.037243217 -0.033532243 0.70899999
-0.05081879 -0.031592872 0.70899999
-0.039182585 -0.031592872 0.70899999
-0.17856485 -0.029611684 0.708
-0.052758157 -0.029653508 0.70899999
-0.049884945 -0.027733684 0.70949996
-0.046940055 -0.027714139 0.70899999
-0.04399927 -0.027694594 0.70850003
-0.034309268 -0.02866428 0.70850003
-0.021758923 -0.029695332 0.70999998
0.011240968 -0.027714139 0.70899999
0.049127828 -0.028724279 0.70999998
-0.17081831 -0.02573842 0.708
-0.055668578 -0.025774773 0.70899999
0.0073518502 -0.02573842 0.708
-0.15748399 -0.021896036 0.70899999
-0.15360527 -0.023835404 0.70899999
-0.1458478 -0.021896036 0.70899999
-0.058658879 -0.023869023 0.70999998
-0.0013646411 -0.021880595 0.70850003
0.0034884121 -0.023869023 0.70999998
-0.15942337 -0.019956669 0.70899999
-0.078079909 -0.016100612 0.70999998
-0.077859968 -0.017991891 0.708
0.020908276 -0.016055258 0.708
0.026793646 -0.016100612 0.70999998
-0.080022007 -0.014158509 0.70999998
-0.077859968 -0.012181995 0.708
-0.13440087 -0.010274303 0.70999998
-0.10332724 -0.010274303 0.70999998
-0.080022007 -0.010274303 0.70999998
-0.13595892 -0.0083087301 0.708
-0.10332724 -0.006390098 0.70999998
-0.10138515 -0.006390098 0.70999998
-0.085727409 -0.0063810982 0.70899999
-0.082760632 -0.006376598 0.70850003
-0.13809033 -0.0044417302 0.70899999
-0.077969939 -0.0044417302 0.70899999
-0.1382851 -0.0025058922 0.70999998
-0.087790415 -0.0025058922 0.70999998
-0.087543122 0.0013744307 0.708
-0.14370546 0.0052476949 0.708
-0.14196905 0.0071944743 0.70899999
-0.077969939 0.0071944743 0.70899999
-0.13809033 0.011073209 0.70899999
-0.10526934 0.011088828 0.70999998
-0.081733227 0.011057592 0.708
-0.080022007 0.0091467239 0.70999998
-0.13809033 0.013012577 0.70899999
-0.10915355 0.014973032 0.70999998
-0.10124235 0.014951944 0.70899999
-0.083788037 0.014951944 0.70899999
-0.10706044 0.016891312 0.70899999
-0.1040045 0.016867487 0.708
-0.10124235 0.016891312 0.70899999
-0.085848317 0.016915135 0.70999998
-0.05857626 0.016891312 0.70899999
-0.056636896 0.016891312 0.70899999
-0.10013124 0.01880412 0.708
-0.087543122 0.019772436 0.708
-0.058493644 0.01880412 0.708
-0.056636896 0.018830679 0.70899999
-0.10624039 0.022741443 0.70999998
-0.10318171 0.022709413 0.70899999
-0.089479759 0.022677384 0.708
-0.060430273 0.022677384 0.708
-0.14757872 0.026550647 0.708
-0.091674618 0.024683546 0.70999998
-0.061441265 0.025601082 0.70850003
-0.023701027 0.024683546 0.70999998
-0.095558837 0.028567752 0.70999998
-0.060515627 0.028527517 0.70899999
-0.099302977 0.032406252 0.70899999
-0.097363606 0.030466884 0.70899999
-0.058493644 0.030423913 0.708
-0.055705782 0.032429107 0.70949996
-0.043000586 0.032360546 0.708
-0.040123269 0.032383397 0.70850003
-0.10138515 0.034394063 0.70999998
-0.05081879 0.034345619 0.70899999
-0.10124235 0.036284987 0.70899999
-0.049778797 0.037202127 0.708
-0.10512108 0.040163722 0.70899999
-0.048879419 0.040163722 0.70899999
-0.10690944 0.042043705 0.708
-0.048879419 0.042103089 0.70899999
-0.10899981 0.045981824 0.70899999
-0.052758157 0.047921192 0.70899999
-0.05081879 0.045981824 0.70899999
-0.10915355 0.049930882 0.70999998
-0.076137796 0.049930882 0.70999998
-0.073122881 0.049860559 0.70899999
-0.045064159 0.049930882 0.70999998
-0.043122053 0.049930882 0.70999998
-0.10884608 0.0536635 0.708
-0.1064634 0.053118099 0.70933324
-0.10415003 0.052770976 0.70899999
-0.070212469 0.052770976 0.70899999
-0.067256629 0.053701397 0.70850003
-0.05566721 0.053739294 0.70899999
-0.05283257 0.053815089 0.70999998
-0.050890468 0.053815089 0.70999998
-0.10138515 0.055757191 0.70999998
-0.081848666 0.055678662 0.70899999
-0.060515627 0.055678662 0.70899999
-0.058658879 0.055757191 0.70999998
-0.10034406 0.057658657 0.70949996
-0.097226284 0.057536762 0.708
-0.093353018 0.059473392 0.708
-0.078079909 0.059641395 0.70999998
-0.076030567 0.058587708 0.70899999
-0.074143447 0.05862971 0.70949996
-0.12724409 0.061410028 0.708
-0.12433913 0.061410028 0.708
-0.12143419 0.061410028 0.708
-0.11852924 0.061410028 0.708
-0.1157876 0.061496764 0.70899999
-0.11287855 0.061496764 0.70899999
-0.11078271 0.061410028 0.708
-0.10616489 0.061540134 0.70949996
-0.10332724 0.0615835 0.70999998
-0.10109955 0.061410028 0.708
-0.097226284 0.061410028 0.708
-0.094455928 0.061496764 0.70899999
-0.081733227 0.061410028 0.708
-0.12055095 0.064361081 0.70850003
-0.11279894 0.064361081 0.70850003
-0.10512108 0.063436128 0.70899999
-0.10373023 0.064667575 0.70833331
-0.10109955 0.063346662 0.708
-0.097226284 0.063346662 0.708
-0.094733834 0.064051859 0.70866662
-0.043122053 0.0654677 0.70999998
-0.037295748 0.0654677 0.70999998
-0.034689676 0.064789601 0.70966667
-0.087666772 0.067314871 0.70899999
-0.085606493 0.067219928 0.708
-0.083669864 0.067219928 0.708
-0.047006261 0.067409806 0.70999998
-0.043122053 0.067409806 0.70999998
-0.085848317 0.069351912 0.70999998
-0.083906218 0.069351912 0.70999998
-0.045064159 0.069351912 0.70999998
-0.043122053 0.069351912 0.70999998
-0.041179951 0.069351912 0.70999998
-0.18710083 -0.14253777 0.71100003
-0.055006113 -0.13513748 0.713
-0.17932148 -0.13281359 0.71100003
-0.054851819 -0.13281359 0.71100003
-0.052906983 -0.13475841 0.71100003
-0.047072466 -0.13475841 0.71100003
-0.04318279 -0.13281359 0.71100003
-0.056836605 -0.12998699 0.71150005
-0.037400808 -0.13105281 0.71200001
-0.058906734 -0.12733625 0.713
-0.037348278 -0.12892391 0.71100003
-0.035503026 -0.12733625 0.713
-0.16983581 -0.12521009 0.71200001
-0.058824118 -0.12326251 0.71200001
-0.056876544 -0.12521009 0.71200001
-0.037348278 -0.12406181 0.71100003
-0.035503026 -0.12343562 0.713
-0.16594067 -0.12131494 0.71200001
-0.056796663 -0.12114456 0.71100003
-0.040320799 -0.12131494 0.71200001
-0.16204551 -0.11741979 0.71200001
-0.08207956 -0.11919972 0.71100003
-0.072355367 -0.1182273 0.71100003
-0.070509553 -0.11839495 0.71200001
-0.068561979 -0.11741979 0.71200001
-0.06475766 -0.11758471 0.713
-0.061450243 -0.11812305 0.71233338
-0.058906734 -0.11758471 0.713
-0.039348379 -0.11839221 0.71200001
-0.037400808 -0.11936736 0.71200001
-0.019900555 -0.11758471 0.713
-0.016951967 -0.11839426 0.71200001
-0.014029924 -0.11839358 0.71200001
-0.039293114 -0.11531004 0.71100003
-0.037453335 -0.1156344 0.713
-0.019872645 -0.11547222 0.71200001
-0.01206538 -0.11531004 0.71100003
-0.01014901 -0.1156344 0.713
-0.15815036 -0.11352465 0.71200001
-0.058741499 -0.1133652 0.71100003
-0.040320799 -0.11254949 0.71200001
-0.021820217 -0.11157708 0.71200001
-0.019900555 -0.11368409 0.713
-0.017925071 -0.11352465 0.71200001
-0.013046284 -0.11344492 0.71150005
-0.010134776 -0.11157708 0.71200001
-0.041353952 -0.10978347 0.713
-0.021820217 -0.1096295 0.71200001
-0.010134776 -0.1096295 0.71200001
-0.1522007 -0.10663389 0.71150005
-0.043243527 -0.10573436 0.71200001
-0.041353952 -0.10783315 0.713
-0.023784483 -0.10678239 0.71249998
-0.1484125 -0.10378677 0.71200001
-0.041295953 -0.10378677 0.71200001
-0.025751481 -0.10393254 0.713
-0.0081987008 -0.10393254 0.713
-0.14472033 -0.10003193 0.713
-0.043243527 -0.1018392 0.71200001
-0.041353952 -0.10003193 0.713
-0.027662938 -0.099891633 0.71200001
-0.01014901 -0.10100707 0.713
-0.084142573 -0.097944058 0.71200001
-0.08207956 -0.097806498 0.71100003
-0.043304261 -0.097106464 0.713
-0.027701791 -0.098081619 0.713
-0.082194999 -0.095996492 0.71200001
-0.078409821 -0.094181001 0.713
-0.076352276 -0.09404891 0.71200001
-0.073380038 -0.09398286 0.71150005
-0.04512763 -0.093916818 0.71100003
-0.028948369 -0.094653159 0.71166664
-0.012099318 -0.094181001 0.713
-0.073534049 -0.092230685 0.713
-0.070410527 -0.091971979 0.71100003
-0.068465687 -0.090027146 0.71100003
-0.046163518 -0.090153769 0.71200001
-0.031535923 -0.091062874 0.71150005
-0.012099318 -0.092230685 0.713
-0.070410527 -0.088082306 0.71100003
-0.047072466 -0.088082306 0.71100003
-0.033458602 -0.088082306 0.71100003
-0.010134776 -0.088206187 0.71200001
-0.0081872027 -0.088206187 0.71200001
-0.11822374 -0.0852862 0.71200001
-0.11514181 -0.086137466 0.71100003
-0.10361831 -0.08625862 0.71200001
-0.095962606 -0.08442945 0.713
-0.07050956 -0.08625862 0.71200001
-0.049017306 -0.086137466 0.71100003
-0.034480814 -0.08625862 0.71200001
-0.0062396289 -0.08625862 0.71200001
-0.0042860275 -0.084192626 0.71100003
0.017155314 -0.086379766 0.713
-0.07050956 -0.082363471 0.71200001
-0.049017306 -0.082247794 0.71100003
-0.035403438 -0.082247794 0.71100003
-0.015977498 -0.082363471 0.71200001
-0.014029924 -0.082363471 0.71200001
-0.0042920555 -0.082363471 0.71200001
0.0034982387 -0.082363471 0.71200001
-0.16376276 -0.080302954 0.71100003
-0.12131662 -0.08052884 0.713
-0.09401229 -0.078578524 0.713
-0.072457135 -0.080415897 0.71200001
-0.050058667 -0.078468323 0.71200001
-0.047204878 -0.08052884 0.713
-0.015977498 -0.078468315 0.71200001
-0.013056137 -0.079442106 0.71200001
0.024956549 -0.078578524 0.713
0.044459637 -0.078578524 0.713
0.046409946 -0.078578524 0.713
0.048360258 -0.078578524 0.713
-0.12114647 -0.076520748 0.71200001
-0.093880437 -0.076520748 0.71200001
-0.073432282 -0.076520741 0.71200001
-0.050058667 -0.076520741 0.71200001
-0.015955057 -0.076413274 0.71100003
-0.01208235 -0.076520748 0.71200001
0.044334929 -0.076413274 0.71100003
0.052114282 -0.076413274 0.71100003
-0.12131662 -0.072727606 0.713
-0.093748584 -0.072523601 0.71100003
-0.068658277 -0.074677907 0.713
-0.062719263 -0.0726256 0.71200001
-0.051033825 -0.0726256 0.71200001
-0.040378798 -0.073702753 0.713
-0.015955057 -0.072523601 0.71100003
-0.012099318 -0.072727606 0.713
0.044397283 -0.0726256 0.71200001
0.046409946 -0.074677907 0.713
0.049197026 -0.074468441 0.71100003
0.054135151 -0.074573174 0.71200001
0.0580303 -0.0726256 0.71200001
-0.09401229 -0.07077729 0.713
-0.054928966 -0.070678025 0.71200001
-0.053055804 -0.07077729 0.713
-0.041295953 -0.070678025 0.71200001
-0.012099318 -0.07077729 0.713
0.044459637 -0.07077729 0.713
0.046344854 -0.070678025 0.71200001
0.049266219 -0.070678025 0.71200001
0.052187577 -0.070678025 0.71200001
0.054211181 -0.07077729 0.713
-0.12097632 -0.066689089 0.71100003
-0.09401229 -0.066876672 0.713
-0.014010219 -0.068633921 0.71100003
0.04055902 -0.066876672 0.713
0.043038372 -0.067337364 0.71100003
0.046344854 -0.066782877 0.71200001
0.049264852 -0.067755297 0.71200001
0.052114282 -0.068633921 0.71100003
0.055148322 -0.068778716 0.71249998
-0.091803744 -0.064744249 0.71100003
-0.089011505 -0.06483531 0.71200001
-0.086211056 -0.064926371 0.713
-0.043304261 -0.064926371 0.713
-0.040349796 -0.06488084 0.71249998
-0.037453335 -0.064926371 0.713
-0.035453234 -0.06483531 0.71200001
-0.01014901 -0.064926371 0.713
0.03855456 -0.06483531 0.71200001
0.050169446 -0.064744249 0.71100003
0.052114282 -0.064744249 0.71100003
0.055148322 -0.06488084 0.71249998
-0.093880437 -0.062887728 0.71200001
-0.091803744 -0.062799409 0.71100003
-0.084142573 -0.062887728 0.71200001
-0.082310438 -0.062976055 0.713
-0.080247425 -0.062887728 0.71200001
-0.076459512 -0.061025746 0.713
-0.029568924 -0.062799409 0.71100003
-0.025679247 -0.060854569 0.71100003
-0.015977498 -0.062887728 0.71200001
-0.0081872027 -0.062887728 0.71200001
0.040445253 -0.062799409 0.71100003
0.046279766 -0.062799409 0.71100003
0.049335413 -0.062976055 0.713
0.052260872 -0.062976055 0.713
0.054135151 -0.061915312 0.71200001
-0.019900555 -0.057125129 0.713
-0.015955057 -0.058909733 0.71100003
0.034708094 -0.059075441 0.713
0.04055902 -0.058100283 0.713
0.043362513 -0.058909733 0.71100003
0.046409946 -0.059075441 0.713
0.049300134 -0.059034012 0.71249998
0.052260872 -0.059075441 0.713
-0.076352276 -0.055097438 0.71200001
-0.017950246 -0.05517482 0.713
0.036555577 -0.055020053 0.71100003
0.044459637 -0.05517482 0.713
0.046344854 -0.056069855 0.71200001
0.049197026 -0.056964889 0.71100003
-0.055824243 -0.052102797 0.71100003
-0.049051777 -0.052140124 0.71150005
-0.01206538 -0.05113038 0.71100003
0.038500413 -0.05113038 0.71100003
0.044397283 -0.053149864 0.71200001
0.046279766 -0.053075217 0.71100003
0.048292432 -0.053149864 0.71200001
-0.060686335 -0.049185537 0.71100003
-0.045191102 -0.049254715 0.71200001
0.040502138 -0.049254715 0.71200001
-0.06475766 -0.045423277 0.713
-0.062719263 -0.047307145 0.71200001
-0.04610005 -0.046268284 0.71100003
-0.043243527 -0.045359571 0.71200001
-0.015955057 -0.047240701 0.71100003
-0.076459512 -0.043472968 0.713
-0.043304261 -0.043472968 0.713
-0.13847987 -0.039461348 0.71100003
-0.13653503 -0.039461348 0.71100003
-0.12796298 -0.039516851 0.71200001
-0.12406784 -0.039516851 0.71200001
-0.12114647 -0.039516851 0.71200001
-0.1191989 -0.039516851 0.71200001
-0.11238103 -0.039516851 0.71200001
-0.10961476 -0.039572351 0.713
-0.1066893 -0.039572351 0.713
-0.10361831 -0.039516851 0.71200001
-0.10069695 -0.039516851 0.71200001
-0.097775586 -0.039516851 0.71200001
-0.094721004 -0.039461348 0.71100003
-0.091803744 -0.039461348 0.71100003
-0.088948317 -0.039489098 0.71150005
-0.085116357 -0.039516851 0.71200001
-0.07624504 -0.041406184 0.71100003
-0.066614412 -0.040489268 0.71200001
-0.040645853 -0.040166039 0.71200007
0.048224609 -0.039461348 0.71100003
-0.082310438 -0.037622042 0.713
-0.079218656 -0.037542894 0.71150005
-0.066614412 -0.037569277 0.71200001
-0.064576015 -0.037516508 0.71100003
-0.056796663 -0.034599252 0.71100003
-0.035403438 -0.033626832 0.71100003
-0.055006113 -0.031771112 0.713
-0.052906983 -0.031681996 0.71100003
-0.037348278 -0.031681996 0.71100003
-0.035453234 -0.031726554 0.71200001
-0.015999937 -0.031771112 0.713
-0.054928966 -0.028803825 0.71200001
-0.052906983 -0.027792318 0.71100003
-0.031513762 -0.029737158 0.71100003
-0.028676946 -0.029820805 0.713
-0.023801174 -0.029820805 0.713
0.0093540791 -0.025920188 0.713
0.013236106 -0.025883835 0.71200001
-0.08894968 -0.021973245 0.71150005
-0.085114993 -0.021988686 0.71200001
-0.072457135 -0.021988686 0.71200001
-0.060771689 -0.02393626 0.71200001
0.0015484872 -0.021957804 0.71100003
0.015162354 -0.023902642 0.71100003
-0.09011168 -0.018118951 0.713
-0.082194999 -0.018093539 0.71200001
-0.080247425 -0.018093539 0.71200001
-0.07624504 -0.020012965 0.71100003
-0.0081757037 -0.018068127 0.71100003
0.017131254 -0.020041114 0.71200001
-0.085117728 -0.014198393 0.71200001
-0.08207956 -0.014178452 0.71100003
-0.080247425 -0.012250819 0.71200001
-0.10152794 -0.010288775 0.71100003
-0.088886492 -0.010288775 0.71100003
-0.085055903 -0.01029601 0.71150005
-0.082194999 -0.010303246 0.71200001
-0.10556588 -0.0064080986 0.71200001
-0.10347278 -0.0083439369 0.71100003
-0.10069695 -0.0073818853 0.71200001
-0.09011168 -0.0083674071 0.713
-0.088686906 -0.0070582018 0.71200007
-0.085175455 -0.0083615398 0.71249998
-0.082194999 -0.0083556725 0.71200001
-0.08013472 -0.0083439369 0.71100003
-0.0062396289 -0.0083556725 0.71200001
-0.088161364 -0.0044667898 0.713
-0.085969232 -0.0044542602 0.71100003
-0.088037722 -0.00056537759 0.71200001
-0.07818988 -0.0025094217 0.71100003
-0.10361831 0.001382196 0.71200001
-0.09011168 0.0013841372 0.713
-0.080360129 0.0013841372 0.713
-0.088099539 0.0043072621 0.71249998
-0.085114993 0.0052773431 0.71200001
-0.07818988 0.0052699312 0.71100003
-0.0081757037 0.0052699312 0.71100003
-0.080360129 0.0072350637 0.713
-0.015955057 0.0072147693 0.71100003
-0.10347278 0.011104446 0.71100003
-0.084260754 0.011135682 0.713
-0.021850863 0.0091853729 0.713
-0.10646553 0.013058461 0.71150005
-0.084142573 0.013067638 0.71200001
-0.099653132 0.015977085 0.71150005
-0.086090147 0.015015211 0.71200001
-0.10639003 0.020828636 0.71100003
-0.10347278 0.020828636 0.71100003
-0.058741499 0.020828636 0.71100003
-0.021850863 0.018936917 0.713
-0.058824118 0.022805505 0.71200001
-0.10347278 0.025690733 0.71100003
-0.094852865 0.025725499 0.71200001
-0.060686335 0.024718314 0.71100003
-0.058741499 0.026663151 0.71100003
-0.058824118 0.028648226 0.71200001
-0.055862814 0.030574316 0.71150005
-0.052981392 0.031568218 0.71200001
-0.04525457 0.032589078 0.713
-0.037348278 0.032497667 0.71100003
-0.029610511 0.030595802 0.71200001
-0.049017306 0.036387343 0.71100003
-0.049155187 0.046241246 0.713
-0.053055804 0.05014186 0.713
-0.049155187 0.05014186 0.713
-0.046532705 0.048818212 0.71266669
-0.078244865 0.052956365 0.71150005
-0.072355367 0.052918471 0.71100003
-0.054851819 0.051946048 0.71100003
-0.049017306 0.053890891 0.71100003
-0.046164885 0.052992214 0.71200007
-0.04318279 0.051946048 0.71100003
-0.041237954 0.051946048 0.71100003
-0.072355367 0.055835728 0.71100003
-0.06475766 0.055992786 0.713
-0.062631175 0.055835728 0.71100003
-0.055824243 0.055835728 0.71100003
-0.052981395 0.055914257 0.71200001
-0.043304261 0.054042481 0.713
-0.041353952 0.054042481 0.713
-0.0840244 0.0597254 0.71100003
-0.079598241 0.058511019 0.71200007
-0.039403643 0.061843716 0.713
-0.037400808 0.06175698 0.71200001
-0.039978236 0.064971291 0.71166664
-0.037348278 0.063615076 0.71100003
-0.089858912 0.067504756 0.71100003
-0.040293165 0.067552224 0.71150005
-0.037400808 0.067599699 0.71200001
-0.034454547 0.067552224 0.71150005
-0.039293114 0.069449596 0.71100003
-0.037453335 0.06964495 0.713
-0.035503026 0.06964495 0.713
-0.031602409 0.06964495 0.713
-0.023801174 0.06964495 0.713
-0.057196077 -0.13570608 0.71600002
-0.045381512 -0.13551654 0.71499997
-0.057116188 -0.13356078 0.71499997
-0.04146995 -0.13356078 0.71499997
-0.059071969 -0.13160498 0.71499997
-0.03565241 -0.12983054 0.71600002
-0.061027747 -0.12378187 0.71499997
-0.059154589 -0.12591352 0.71600002
-0.035602614 -0.12573765 0.71499997
-0.079496309 -0.12165571 0.71399999
-0.076673977 -0.12182609 0.71499997
-0.066988647 -0.12003797 0.71600002
-0.065030135 -0.12003797 0.71600002
-0.061113104 -0.12199648 0.71600002
-0.05898935 -0.12165571 0.71399999
-0.037505865 -0.12165571 0.71399999
-0.03565241 -0.12003797 0.71600002
-0.084497102 -0.11791454 0.71499997
-0.067778051 -0.11872614 0.71399999
-0.06289544 -0.11970266 0.71399999
-0.037505865 -0.11774962 0.71399999
-0.019956376 -0.11987031 0.71499997
-0.012116288 -0.11774962 0.71399999
-0.08651334 -0.11506195 0.7155
-0.02192748 -0.11506058 0.7155
-0.008233198 -0.11612094 0.71600002
-0.039458908 -0.11384353 0.71399999
-0.037610926 -0.11220391 0.71600002
-0.023901319 -0.11220391 0.71600002
-0.010163245 -0.11384353 0.71399999
-0.0082216989 -0.1120472 0.71499997
-0.088532314 -0.10828688 0.71600002
-0.039569438 -0.11024539 0.71600002
-0.025823714 -0.10813563 0.71499997
-0.023901319 -0.11024539 0.71600002
-0.041527953 -0.10632837 0.71600002
-0.025859833 -0.10632837 0.71600002
-0.0082216989 -0.10715638 0.71500003
-0.088346839 -0.1031733 0.71449995
-0.04146995 -0.10226829 0.71499997
-0.02781835 -0.10436985 0.71600002
-0.025787598 -0.10212526 0.71399999
-0.088285014 -0.10017222 0.71399999
-0.029735273 -0.10031252 0.71499997
-0.008233198 -0.10045283 0.71600002
-0.08580187 -0.097052895 0.71499997
-0.031646732 -0.096266136 0.71399999
-0.029735273 -0.098356739 0.71499997
-0.010177479 -0.097380221 0.71500003
-0.080585539 -0.094445176 0.71499997
-0.043486468 -0.094577275 0.71600002
-0.031691052 -0.094445176 0.71499997
-0.078629762 -0.092489399 0.71499997
-0.076566748 -0.092360042 0.71399999
-0.070707619 -0.090407006 0.71399999
-0.043425731 -0.092489399 0.71499997
-0.033646833 -0.09151151 0.71499997
-0.012116288 -0.090407006 0.71399999
-0.072660662 -0.088453956 0.71399999
-0.045318041 -0.088453956 0.71399999
-0.035552818 -0.088453956 0.71399999
-0.0062571559 -0.088453956 0.71399999
-0.10209912 -0.086622059 0.71499997
-0.10014334 -0.086622059 0.71499997
-0.07276243 -0.085645542 0.71500003
-0.047304187 -0.085584961 0.71449995
-0.037610926 -0.084784701 0.71600002
-0.0043101399 -0.086622059 0.71499997
0.013310467 -0.086743221 0.71600002
0.01522633 -0.086500913 0.71399999
-0.094144143 -0.082594819 0.71399999
-0.072762422 -0.082710497 0.71499997
-0.04733729 -0.082710497 0.71499997
-0.0013767494 -0.082768336 0.7155
0.0015571987 -0.082710497 0.71499997
-0.092320219 -0.08075472 0.71499997
-0.074665949 -0.079721726 0.71449995
-0.047403499 -0.078909151 0.71600002
-0.037505865 -0.079665259 0.71399999
-0.014089038 -0.078798942 0.71499997
0.044584349 -0.08075472 0.71499997
-0.039514173 -0.076843157 0.71499997
-0.014089038 -0.076843157 0.71499997
0.042628571 -0.076843157 0.71499997
0.054287214 -0.07673569 0.71399999
-0.094144143 -0.074782647 0.71399999
-0.065030135 -0.073033608 0.71600002
-0.051177174 -0.074782647 0.71399999
-0.016022377 -0.074782647 0.71399999
-0.013111148 -0.073909491 0.71499997
0.040729679 -0.073033608 0.71600002
0.043575283 -0.073857129 0.71449995
0.056319028 -0.07488738 0.71499997
-0.092320219 -0.06902004 0.71499997
-0.057116188 -0.070975818 0.71499997
-0.051248848 -0.070975818 0.71499997
-0.014069334 -0.070876554 0.71399999
0.038717009 -0.06902004 0.71499997
0.042628571 -0.070975818 0.71499997
0.056240261 -0.070876554 0.71399999
0.058274806 -0.070975818 0.71499997
-0.043425731 -0.068040788 0.71500003
