# .PCD v0.7 - Point Cloud Data file format
VERSION 0.7
FIELDS x y z
SIZE 4 4 4
TYPE F F F
COUNT 1 1 1
WIDTH 1347
HEIGHT 1
VIEWPOINT 0 0 0 1 0 0 0
POINTS 1347
DATA ascii
-0.084946506 -0.14148474 0.68699998
-0.082245901 -0.14169069 0.68799996
-0.079539821 -0.14189664 0.68900001
-0.086952083 -0.13980877 0.68800002
-0.083309144 -0.14001198 0.68900001
-0.072943509 -0.13812733 0.68900001
-0.081894226 -0.1366054 0.68766665
-0.079539821 -0.13624266 0.68900001
-0.076250263 -0.1372318 0.68766665
-0.072943509 -0.13624266 0.68900001
-0.090584069 -0.133968 0.68699998
-0.088020794 -0.13247333 0.68900001
-0.085070156 -0.13228108 0.68800002
-0.082247272 -0.13228108 0.68800002
-0.079424381 -0.13416301 0.68800002
-0.07660149 -0.13416301 0.68800002
-0.073671363 -0.133968 0.68699998
-0.070903465 -0.13406551 0.6875
-0.088963121 -0.13058868 0.68900001
-0.085949294 -0.13030438 0.6875
-0.075550556 -0.13020961 0.68699998
-0.069912985 -0.13020961 0.68699998
-0.068231866 -0.13058868 0.68900001
-0.087078467 -0.12681936 0.68900001
-0.08513198 -0.12766966 0.68850005
-0.083067313 -0.12833042 0.68699998
-0.075660534 -0.12851723 0.68800002
-0.073778607 -0.12851723 0.68800002
-0.07001476 -0.1266353 0.68800002
-0.067241386 -0.12672733 0.68850005
-0.064368978 -0.1266353 0.68800002
-0.062577881 -0.12681936 0.68900001
-0.079308935 -0.12457203 0.68699998
-0.071006596 -0.12484403 0.68850005
-0.079308935 -0.12269285 0.68699998
-0.07660149 -0.12098952 0.68800002
-0.073778607 -0.12098952 0.68800002
-0.070955724 -0.12098952 0.68800002
-0.067143723 -0.12184119 0.6875
-0.064275421 -0.12269285 0.68699998
-0.061546095 -0.12287145 0.68800002
-0.12100235 -0.11739606 0.68900001
-0.079539821 -0.11928071 0.68900001
-0.077429742 -0.11893447 0.68699998
-0.073671363 -0.11893447 0.68699998
-0.070573308 -0.11836487 0.68733335
-0.066878214 -0.11785207 0.68800002
-0.064368978 -0.1191076 0.68800002
-0.061546095 -0.1191076 0.68800002
-0.058808558 -0.11928071 0.68900001
-0.12477167 -0.1155114 0.68900001
-0.11612055 -0.11534374 0.68799996
-0.075770505 -0.1155114 0.68900001
-0.073778607 -0.11534375 0.68800002
-0.06150068 -0.11525992 0.6875
-0.12816787 -0.11141771 0.68699998
-0.1179174 -0.11337937 0.6875
-0.11518095 -0.11346183 0.68800002
-0.11125515 -0.11141771 0.68699998
-0.10969438 -0.11174208 0.68900001
-0.07011652 -0.11362674 0.68900001
-0.06747251 -0.11278045 0.68766665
-0.064462543 -0.11362674 0.68900001
-0.061635546 -0.11362674 0.68900001
-0.056758661 -0.11141771 0.68699998
-0.052097894 -0.1114988 0.6875
-0.11125515 -0.10953852 0.68699998
-0.061546095 -0.10969797 0.68800002
-0.05863785 -0.10953852 0.68699998
-0.056758661 -0.10953852 0.68699998
-0.053000279 -0.10953852 0.68699998
-0.13004705 -0.10578014 0.68699998
-0.10937596 -0.10578014 0.68699998
-0.1070772 -0.10724097 0.68833333
-0.064368978 -0.10781606 0.68800002
-0.061591506 -0.10601111 0.68850005
-0.058723204 -0.10593412 0.68800002
-0.055860378 -0.10585713 0.6875
-0.051195506 -0.10687509 0.68800002
-0.13023636 -0.10217027 0.68800002
-0.12722826 -0.10202177 0.68699998
-0.10215575 -0.10420343 0.68900001
-0.10099238 -0.10209602 0.6875
-0.060605131 -0.10405219 0.68800002
-0.058808558 -0.10420343 0.68900001
-0.05590032 -0.10405219 0.68800002
-0.052175041 -0.10224453 0.68850005
-0.049313582 -0.10217027 0.68800002
-0.047500595 -0.10420343 0.68900001
-0.13023636 -0.10028835 0.68800002
-0.12816787 -0.10014258 0.68699998
-0.098243639 -0.10028835 0.68800002
-0.052175041 -0.10036123 0.68850005
-0.045483522 -0.10014258 0.68699998
-0.043731276 -0.10043412 0.68900001
-0.041846614 -0.10043412 0.68900001
-0.12468112 -0.09753561 0.68850005
-0.1221408 -0.097198568 0.68833333
-0.097372703 -0.09847793 0.68850005
-0.094342448 -0.096384197 0.68699998
-0.091655523 -0.096524492 0.68799996
-0.049385257 -0.096664794 0.68900001
-0.046541028 -0.097572051 0.68875003
0.022231838 -0.096664794 0.68900001
-0.11911769 -0.094780132 0.68900001
-0.10185921 -0.094505005 0.68699998
-0.097161233 -0.094505005 0.68699998
-0.094479777 -0.094642572 0.68800002
-0.092732452 -0.094780132 0.68900001
-0.11911769 -0.092895478 0.68900001
-0.11534837 -0.091010816 0.68900001
-0.11346371 -0.091010816 0.68900001
-0.0915896 -0.090812676 0.6875
0.020347178 -0.092895478 0.68900001
-0.11329903 -0.088996798 0.68800002
-0.10765326 -0.087114878 0.68800002
-0.086952083 -0.088055834 0.68800002
-0.083309144 -0.089126147 0.68900001
0.020347178 -0.089126147 0.68900001
0.026001159 -0.089126147 0.68900001
-0.10780973 -0.085356832 0.68900001
-0.084946506 -0.085109055 0.68699998
-0.082186811 -0.085170999 0.6875
-0.077429742 -0.085109055 0.68699998
-0.10336277 -0.08280357 0.68866664
-0.10185921 -0.081350677 0.68699998
-0.084946506 -0.08322987 0.68699998
-0.082307726 -0.082470633 0.68850005
-0.079424381 -0.082411423 0.68799996
-0.076546505 -0.081409886 0.6875
0.020347178 -0.081587508 0.68900001
-0.097374067 -0.079645008 0.68850005
-0.094342448 -0.079471491 0.68699998
-0.081424482 -0.079702847 0.68900001
-0.097444102 -0.077818193 0.68900001
-0.094342448 -0.077592298 0.68699998
-0.090847783 -0.075933523 0.68900001
-0.076490149 -0.076652706 0.68699998
-0.091658264 -0.073941395 0.68799996
-0.088963121 -0.072164208 0.68900001
-0.086011119 -0.072059475 0.68800002
-0.083309144 -0.072164208 0.68900001
-0.041846614 -0.072164208 0.68900001
-0.085949294 -0.070126548 0.6875
-0.08181452 -0.070701934 0.68699998
-0.079308935 -0.071954727 0.68699998
-0.053000279 -0.070075542 0.68699998
-0.039845955 -0.071954727 0.68699998
-0.036087576 -0.071954727 0.68699998
-0.058723204 -0.066413693 0.68800002
-0.054959357 -0.06829562 0.68800002
-0.062396228 -0.064437971 0.68699998
0.016577857 -0.062740907 0.68900001
-0.034208383 -0.058800403 0.68699998
0.016577857 -0.058971588 0.68900001
0.019390082 -0.058928791 0.68850005
0.022231838 -0.058971588 0.68900001
0.024116497 -0.058971588 0.68900001
-0.064275421 -0.056921214 0.68699998
0.0090392148 -0.051432945 0.68900001
-0.060517035 -0.045646075 0.68699998
0.0071337866 -0.047525264 0.68699998
0.012789946 -0.047594447 0.68800002
0.0071545551 -0.043894306 0.68900001
0.0099815447 -0.043894306 0.68900001
-0.12628867 -0.040008508 0.68699998
-0.1218555 -0.040095866 0.68850005
-0.11817536 -0.040124983 0.68900001
-0.11534837 -0.040124983 0.68900001
-0.11227709 -0.040037625 0.6875
-0.10969438 -0.040124983 0.68900001
0.0099604987 -0.040037625 0.6875
-0.12477167 -0.036355659 0.68900001
-0.11723303 -0.036355659 0.68900001
-0.11534837 -0.036355659 0.68900001
-0.11252138 -0.036355659 0.68900001
0.0071441708 -0.037245221 0.68799996
0.0099591315 -0.037217475 0.6875
0.0090392148 -0.034471001 0.68900001
-0.054959357 -0.032539047 0.68800002
0.0052660704 -0.031620361 0.68850005
0.0071337866 -0.030612558 0.68699998
0.010915948 -0.031620361 0.68850005
0.012808535 -0.03258634 0.68900001
0.0052545969 -0.028733369 0.68699998
0.012789946 -0.028775197 0.68800002
-0.051269919 -0.026932359 0.68900001
0.0052622454 -0.025953675 0.68799996
0.0071441708 -0.026893269 0.68800002
0.0099525712 -0.025914585 0.68699998
0.012808535 -0.025047699 0.68900001
-0.097444102 -0.021278378 0.68900001
-0.021084705 -0.021247495 0.68800002
0.004636575 -0.021886008 0.68833333
0.0071545551 -0.023163037 0.68900001
0.0090129757 -0.02121661 0.68699998
0.0052698944 -0.019393718 0.68900001
-0.096501768 -0.017509058 0.68900001
-0.051195506 -0.015601721 0.68800002
-0.021054057 -0.015579043 0.68699998
0.0046323878 -0.016847866 0.68766665
0.0071337866 -0.015579043 0.68699998
0.0096490309 -0.016847866 0.68766665
0.0033803205 -0.013719795 0.68800002
0.013741571 -0.013729766 0.68850005
-0.051195506 -0.0099559454 0.68800002
-0.024848554 -0.011837871 0.68800002
0.0043212832 -0.010896908 0.68800002
0.0099604987 -0.010888305 0.6875
-0.047362708 -0.0080622844 0.68699998
-0.036087576 -0.0061830948 0.68699998
0.0043237396 -0.0071375575 0.68850005
0.0071441708 -0.00807402 0.68800002
0.0099749863 -0.0071375575 0.68850005
0.0052622459 -0.0043101702 0.68800002
0.010923875 -0.0043164347 0.68900001
0.0052698944 -0.000547114 0.68900001
0.012808535 -0.0024317743 0.68900001
0.0052545969 0.0013336637 0.68699998
0.014693196 0.0013375464 0.68900001
0.0071337866 0.0032128531 0.68699998
0.010908021 0.00321753 0.68800002
0.012808535 0.0032222066 0.68900001
-0.060517035 0.014487991 0.68699998
-0.047500595 0.02206881 0.68900001
-0.060517035 0.029521508 0.68699998
-0.060693216 0.040915415 0.68900001
-0.045615934 0.05976202 0.68900001
-0.058723204 0.067202985 0.68800002
-0.08266636 -0.14430299 0.69149995
-0.087331235 -0.14230853 0.69099998
-0.0769905 -0.1424115 0.69149995
-0.081542663 -0.14021519 0.69
-0.07965526 -0.14021519 0.69
-0.076935515 -0.14041841 0.69099998
-0.070421815 -0.13872874 0.69199997
-0.091111489 -0.13663813 0.69099998
-0.077767871 -0.1364404 0.69
-0.070421815 -0.13683587 0.69199997
-0.093136214 -0.13494301 0.69199997
-0.091111489 -0.13285787 0.69099998
-0.07965526 -0.1326656 0.69
-0.076935515 -0.13285787 0.69099998
-0.073049381 -0.1326656 0.69
-0.070320047 -0.13285787 0.69099998
-0.068429925 -0.13474801 0.69099998
-0.091111489 -0.13096774 0.69099998
-0.070320047 -0.12907761 0.69099998
-0.067202844 -0.12976992 0.69133329
-0.064743213 -0.13021085 0.69199997
-0.088213101 -0.12803915 0.69050002
-0.072105683 -0.12889081 0.69
-0.06095748 -0.12737153 0.69199997
-0.082291789 -0.12466729 0.69099998
-0.067387193 -0.12511602 0.69
-0.064649656 -0.12529735 0.69099998
-0.061858505 -0.12538801 0.69149995
-0.058032833 -0.12340722 0.69099998
-0.07965526 -0.12134123 0.69
-0.066443495 -0.12134123 0.69
-0.064556099 -0.12134123 0.69
-0.061725006 -0.12134123 0.69
-0.058893912 -0.12134123 0.69
-0.12324372 -0.11773682 0.69099998
-0.11929058 -0.11756644 0.69
-0.081779018 -0.11980007 0.69199997
-0.077046849 -0.11790721 0.69199997
-0.073102996 -0.11765163 0.69050002
-0.064649656 -0.11773682 0.69099998
-0.061814457 -0.11773682 0.69099998
-0.057089135 -0.11962695 0.69099998
-0.055278886 -0.11980007 0.69199997
-0.11395774 -0.11601434 0.69199997
-0.077880576 -0.11584669 0.69099998
-0.058032833 -0.11584669 0.69099998
-0.055278886 -0.11601434 0.69199997
-0.052073587 -0.11527163 0.69133329
-0.12684016 -0.11379165 0.69
-0.11276565 -0.11387411 0.69050002
-0.10827915 -0.11222861 0.69199997
-0.072210178 -0.1130115 0.69099998
-0.070218287 -0.11190426 0.69
-0.058979262 -0.11395657 0.69099998
-0.049600285 -0.11222861 0.69199997
-0.13099353 -0.11033574 0.69199997
-0.10906637 -0.1101763 0.69099998
-0.067137741 -0.10886398 0.69066668
-0.064556099 -0.11001685 0.69
-0.051344328 -0.11001685 0.69
-0.04952861 -0.10828617 0.69099998
-0.047707416 -0.10844288 0.69199997
-0.1060788 -0.10624207 0.69
-0.1043424 -0.10639604 0.69099998
-0.064743213 -0.10655001 0.69199997
-0.049456935 -0.10624207 0.69
-0.13279039 -0.10363509 0.69149995
-0.10041662 -0.10435466 0.69
-0.098814815 -0.10371071 0.69199997
-0.066636078 -0.10465714 0.69199997
-0.064649656 -0.1045059 0.69099998
-0.062668703 -0.10435466 0.69
-0.057171751 -0.10276428 0.69199997
-0.055199005 -0.10261578 0.69099998
-0.046399545 -0.10329623 0.69133329
-0.042659774 -0.10339523 0.69199997
-0.040135954 -0.10465714 0.69199997
0.020435771 -0.10465714 0.69199997
0.022328638 -0.10465714 0.69199997
-0.13288641 -0.10087141 0.69199997
-0.096641824 -0.10057988 0.69
-0.095029071 -0.10087141 0.69199997
-0.057171751 -0.10087141 0.69199997
-0.055119123 -0.10057988 0.69
0.019474573 -0.10079853 0.69149995
0.022296371 -0.10072564 0.69099998
-0.12910068 -0.098978542 0.69199997
-0.12711589 -0.097960599 0.69149995
-0.094013982 -0.098907024 0.69149995
-0.089350477 -0.097085685 0.69199997
-0.051493149 -0.098032117 0.69199997
-0.049456935 -0.098692477 0.69
-0.043889951 -0.097960599 0.69149995
0.019474573 -0.097015537 0.69149995
0.024186499 -0.09694539 0.69099998
-0.12152921 -0.095192812 0.69199997
-0.091111489 -0.095055252 0.69099998
-0.089221358 -0.093165129 0.69099998
0.016650038 -0.093299955 0.69199997
0.018489312 -0.093030304 0.69
0.022296371 -0.094111562 0.69099998
0.025150433 -0.093232542 0.69149995
-0.11757333 -0.091274992 0.69099998
-0.089221358 -0.091274992 0.69099998
0.019461174 -0.091274992 0.69099998
0.022328638 -0.091407083 0.69199997
-0.11568319 -0.089384861 0.69099998
-0.11190293 -0.087494731 0.69099998
-0.10985359 -0.087368116 0.69
-0.085379273 -0.088375121 0.69050002
-0.082251489 -0.088081658 0.69066668
-0.079770707 -0.088439792 0.69099998
0.018489312 -0.089255504 0.69
0.022264104 -0.089255504 0.69
0.024816543 -0.088123865 0.69099998
0.028007237 -0.089514211 0.69199997
-0.1100128 -0.085604601 0.69099998
-0.075880475 -0.085480712 0.69
0.016625976 -0.085604601 0.69099998
0.019446408 -0.085542656 0.69050002
0.022296371 -0.085604601 0.69099998
0.025095198 -0.085480712 0.69
0.027926292 -0.085480712 0.69
-0.10615567 -0.082710192 0.69050002
-0.081660837 -0.08371447 0.69099998
-0.076879159 -0.083653897 0.69050002
-0.074100308 -0.081824332 0.69099998
0.016601916 -0.08170592 0.69
0.019475941 -0.082829975 0.69149995
0.022328638 -0.081942745 0.69199997
0.024186499 -0.081824332 0.69099998
0.028933432 -0.081883535 0.69149995
-0.10260054 -0.08004988 0.69199997
-0.10056214 -0.07898777 0.69099998
-0.07965526 -0.079818524 0.69
-0.07688053 -0.079876363 0.69050002
0.014757171 -0.078157015 0.69199997
0.019461174 -0.078044072 0.69099998
0.022296371 -0.078044072 0.69099998
0.026076632 -0.078044072 0.69099998
0.027966764 -0.078044072 0.69099998
-0.095029071 -0.07626415 0.69199997
-0.092867039 -0.076043732 0.69
-0.076100416 -0.07626415 0.69199997
0.016625978 -0.077097639 0.69099998
0.024151498 -0.077931136 0.69
-0.094891749 -0.074263811 0.69099998
-0.091243342 -0.072478421 0.69199997
-0.077993281 -0.072478421 0.69199997
-0.043921687 -0.072478421 0.69199997
0.013780118 -0.074210078 0.69050002
0.016601916 -0.074156336 0.69
0.019474573 -0.074317545 0.69149995
0.022264104 -0.074156336 0.69
0.025114065 -0.074210078 0.69050002
-0.08909224 -0.070381552 0.69
-0.07965526 -0.070381552 0.69
0.013780118 -0.070432551 0.69050002
0.016601916 -0.070381552 0.69
0.018542904 -0.070585556 0.69199997
-0.085502923 -0.067696616 0.69149995
-0.083550967 -0.06859342 0.69099998
-0.032470372 -0.06660676 0.69
0.013800075 -0.066751555 0.69149995
0.016601916 -0.06660676 0.69
0.019475941 -0.066751555 0.69149995
0.022328638 -0.066799819 0.69199997
0.025167935 -0.066799819 0.69199997
0.012864305 -0.06301409 0.69199997
0.022328638 -0.06301409 0.69199997
0.026114369 -0.06301409 0.69199997
-0.066539787 -0.06197796 0.69099998
0.014735846 -0.062923029 0.69099998
0.016601916 -0.060944568 0.69
0.019447777 -0.061933115 0.69050002
0.022328638 -0.061121218 0.69199997
0.024204001 -0.062022123 0.69149995
0.026114369 -0.059228353 0.69199997
-0.064556099 -0.05528238 0.69
-0.032564487 -0.05544262 0.69199997
-0.032470372 -0.053394988 0.69
0.0052928398 -0.051656887 0.69199997
0.0071649388 -0.051507592 0.69
0.010939729 -0.051507592 0.69
0.013800075 -0.051619563 0.69149995
-0.062759526 -0.049692113 0.69099998
0.0071753226 -0.049692113 0.69099998
0.0099960323 -0.0496202 0.69
-0.062759526 -0.047801975 0.69099998
-0.02875796 -0.046891503 0.69149995
0.0043387581 -0.047801979 0.69099998
0.0071857064 -0.045978289 0.69199997
0.0099960323 -0.045845404 0.69
0.013789413 -0.046855547 0.69099998
-0.1272078 -0.044085424 0.69199997
-0.12432392 -0.043123063 0.69174993
-0.11269584 -0.042823512 0.69199997
-0.110172 -0.044085424 0.69199997
-0.10623254 -0.044021718 0.69099998
-0.10313174 -0.043412 0.69133329
-0.060781304 -0.042070612 0.69
0.0052851913 -0.044021718 0.69099998
0.0071753226 -0.042131584 0.69099998
0.0090785725 -0.042192556 0.69199997
0.013790781 -0.044021718 0.69099998
-0.10812268 -0.040241454 0.69099998
-0.10623254 -0.040241454 0.69099998
-0.10332184 -0.040212333 0.69050002
-0.10070767 -0.040299688 0.69199997
-0.094891749 -0.040241454 0.69099998
-0.091923341 -0.040183216 0.69
-0.076100416 -0.040299688 0.69199997
-0.060869392 -0.040241454 0.69099998
0.0052775429 -0.040183216 0.69
0.013781486 -0.040212333 0.69050002
0.016650038 -0.040299688 0.69199997
-0.12702398 -0.037406258 0.69099998
-0.12387285 -0.037721276 0.69099998
-0.12144139 -0.037434004 0.69149995
-0.11889104 -0.03773978 0.69133329
-0.11551578 -0.038295824 0.69
-0.11268469 -0.038295824 0.69
-0.10932969 -0.037073646 0.69066668
-0.10638627 -0.036513958 0.69199997
-0.095029071 -0.036513958 0.69199997
-0.076100416 -0.036513958 0.69199997
-0.073155239 -0.036461189 0.69099998
-0.058936588 -0.037379876 0.69050002
0.0052851913 -0.036461189 0.69099998
0.010939729 -0.038295824 0.69
0.012845716 -0.036461189 0.69099998
0.0052928398 -0.03462109 0.69199997
0.0071649388 -0.034521032 0.69
0.010971439 -0.03462109 0.69199997
-0.11774347 -0.032728225 0.69199997
-0.10070767 -0.032728225 0.69199997
-0.097868383 -0.032728225 0.69199997
-0.095029071 -0.032728225 0.69199997
0.014106713 -0.031420842 0.69099998
-0.094891749 -0.028900668 0.69099998
-0.053231724 -0.028858844 0.69
0.0033950601 -0.027954234 0.69099998
0.01471452 -0.028858844 0.69
0.016650038 -0.028942492 0.69199997
-0.097798347 -0.025138583 0.69149995
-0.094754428 -0.025084052 0.69
-0.092055187 -0.025120405 0.69099998
-0.051344328 -0.025084052 0.69
-0.023033394 -0.026971446 0.69
0.0033950601 -0.025120405 0.69099998
0.010939729 -0.026971446 0.69
0.014735846 -0.025120405 0.69099998
-0.10041662 -0.02130926 0.69
-0.093878031 -0.021324702 0.69050002
0.0015071071 -0.021371026 0.69199997
0.0033999733 -0.023263892 0.69199997
0.010315883 -0.022578731 0.69033337
0.013810738 -0.021371026 0.69199997
0.016650038 -0.021371026 0.69199997
-0.096921943 -0.019478159 0.69199997
-0.021145998 -0.019421864 0.69
0.0033950601 -0.019450013 0.69099998
0.0071649388 -0.019421864 0.69
0.009065453 -0.019450013 0.69099998
-0.10260054 -0.017585292 0.69199997
-0.10056215 -0.01755988 0.69099998
-0.098529227 -0.01753447 0.69
-0.095029071 -0.017585292 0.69199997
0.0015071071 -0.017585292 0.69199997
0.0033950601 -0.01566975 0.69099998
0.010939729 -0.015647074 0.69
0.01346865 -0.016920457 0.69066668
0.016625976 -0.01755988 0.69099998
-0.053308871 -0.01377962 0.69099998
-0.021176644 -0.01377962 0.69099998
0.0015071071 -0.013799561 0.69199997
0.016601916 -0.013759678 0.69
-0.052326597 -0.010935821 0.69050002
-0.026808186 -0.0099848863 0.69
0.0033999733 -0.011906695 0.69199997
0.010939729 -0.011872283 0.69
0.013801443 -0.010006593 0.69149995
0.016625976 -0.0099993572 0.69099998
-0.070218287 -0.0062100952 0.69
-0.049492773 -0.0071582934 0.69050002
-0.047569536 -0.0062100952 0.69
-0.034357768 -0.0062100952 0.69
-0.030671621 -0.0081209615 0.69199997
0.0015071071 -0.0062280954 0.69199997
0.0033999733 -0.0081209615 0.69199997
0.012845716 -0.0062190956 0.69099998
0.016650038 -0.0062280954 0.69199997
0.012845716 -0.0043289643 0.69099998
0.0015071071 -0.0024423625 0.69199997
0.0033950601 -0.002438833 0.69099998
0.013781486 -0.0014933705 0.69050002
0.016601916 -0.0024353038 0.69
0.018516108 -0.002438833 0.69099998
0.0015071071 0.0013433701 0.69199997
0.0033901469 0.0013394876 0.69
0.016601916 0.0013394876 0.69
0.018542904 0.0013433701 0.69199997
0.0052775429 0.0032268832 0.69
0.014757171 0.0032362363 0.69199997
-0.22909106 0.014572346 0.69099998
-0.21397001 0.02213287 0.69099998
-0.075880475 0.029650424 0.69
-0.059064616 0.029736366 0.69199997
-0.21366036 0.03153782 0.69
-0.21427965 0.033522099 0.69199997
-0.06852895 0.041093562 0.69199997
-0.068380408 0.043838318 0.69050002
-0.072210178 0.048594706 0.69099998
-0.075880475 0.056073964 0.69
-0.070320047 0.067496017 0.69099998
-0.08593569 -0.14503339 0.69499999
-0.081897199 -0.14651163 0.69300002
-0.079166502 -0.14577387 0.69400001
-0.074529253 -0.14123124 0.69499999
-0.091375202 -0.13892922 0.69300002
-0.089479603 -0.14082482 0.69300002
-0.067825988 -0.13637969 0.69449997
-0.093270808 -0.13324241 0.69300002
-0.067776471 -0.13343468 0.69400001
-0.093270808 -0.13134681 0.69300002
-0.091638908 -0.12982482 0.69499999
-0.089479603 -0.12945122 0.69300002
-0.062941179 -0.13039902 0.69300002
-0.091507055 -0.12773967 0.69400001
-0.089737833 -0.12602265 0.69499999
-0.059320677 -0.12602265 0.69499999
-0.087773576 -0.12498146 0.69449997
-0.085812047 -0.1248908 0.69400001
-0.083792798 -0.12376441 0.69300002
-0.11825392 -0.12031944 0.69499999
-0.084034622 -0.12031944 0.69499999
-0.082015373 -0.12204466 0.69400001
-0.057254374 -0.1218688 0.69300002
-0.051716387 -0.12031944 0.69499999
-0.12170483 -0.1199732 0.69300002
-0.11886144 -0.1190254 0.69300002
-0.11635285 -0.11841837 0.69499999
-0.082133554 -0.11841837 0.69499999
-0.080117032 -0.11824799 0.69400001
-0.058284789 -0.11824799 0.69400001
-0.055518534 -0.11841837 0.69499999
-0.052932337 -0.11893665 0.69433331
-0.11238877 -0.11634964 0.69400001
-0.11049043 -0.11445132 0.69400001
-0.080117032 -0.11634964 0.69400001
-0.076430336 -0.11461623 0.69499999
-0.074314788 -0.11428641 0.69300002
-0.057254374 -0.11428641 0.69300002
-0.055358771 -0.11428641 0.69300002
-0.053463165 -0.11428641 0.69300002
-0.049743641 -0.11539911 0.69400001
0.020524366 -0.1165173 0.69499999
0.022393173 -0.11634964 0.69400001
0.025204308 -0.116182 0.69300002
0.028995512 -0.116182 0.69300002
0.031930801 -0.1165173 0.69499999
-0.10684749 -0.11271515 0.69499999
-0.074422024 -0.11255298 0.69400001
-0.047914241 -0.11271515 0.69499999
0.020524366 -0.11271515 0.69499999
0.022393173 -0.11255298 0.69400001
0.024291508 -0.11255298 0.69400001
0.028128656 -0.11271515 0.69499999
0.030029727 -0.11271515 0.69499999
-0.10669375 -0.11065464 0.69400001
-0.10464441 -0.1085996 0.69300002
-0.072628185 -0.10891301 0.69499999
-0.07062535 -0.1087563 0.69400001
-0.068627983 -0.11049519 0.69300002
-0.049743641 -0.11065464 0.69400001
-0.046930604 -0.10978519 0.69449997
0.020494835 -0.1087563 0.69400001
0.022360906 -0.1085996 0.69300002
0.025259545 -0.10883465 0.69449997
0.029037353 -0.1087563 0.69400001
-0.1334625 -0.10701194 0.69499999
-0.10289709 -0.10685796 0.69400001
-0.066828676 -0.10685796 0.69400001
-0.046894766 -0.10685796 0.69400001
-0.038408879 -0.10511086 0.69499999
0.020524366 -0.10701194 0.69499999
0.022393173 -0.10685796 0.69400001
0.024326509 -0.10701194 0.69499999
-0.097132042 -0.10393621 0.69350004
-0.068627983 -0.10480839 0.69300002
-0.063122824 -0.10320979 0.69499999
-0.061045572 -0.10291279 0.69300002
-0.059235327 -0.1030613 0.69400001
-0.043985158 -0.10480839 0.69300002
-0.040251955 -0.1030613 0.69400001
0.019210501 -0.10359415 0.69333339
0.022393173 -0.1030613 0.69400001
0.024924286 -0.10432593 0.69400001
-0.13137214 -0.099264614 0.69400001
-0.093405396 -0.10116296 0.69400001
-0.091638908 -0.099407643 0.69499999
-0.063122824 -0.10130872 0.69499999
-0.06113366 -0.10116296 0.69400001
-0.059320677 -0.10130872 0.69499999
-0.055438653 -0.099264614 0.69400001
-0.053540312 -0.099264614 0.69400001
-0.042211026 -0.099407643 0.69499999
-0.040251955 -0.10116296 0.69400001
0.016722221 -0.10130872 0.69499999
0.0195309 -0.099193096 0.69350004
0.022360906 -0.099121578 0.69300002
0.024924288 -0.10052925 0.69400001
0.030029727 -0.10130872 0.69499999
-0.12966037 -0.097506575 0.69499999
-0.087836772 -0.097506575 0.69499999
-0.057419606 -0.097506575 0.69499999
-0.055438653 -0.097366281 0.69400001
-0.053463165 -0.097225986 0.69300002
0.016698159 -0.097366281 0.69400001
0.02615211 -0.097225986 0.69300002
0.029015748 -0.097296134 0.69350004
-0.12453138 -0.094925962 0.69466662
-0.12170483 -0.093434788 0.69300002
-0.088596359 -0.094451368 0.69350004
-0.08593569 -0.093704432 0.69499999
-0.051641978 -0.093569607 0.69400001
-0.049779478 -0.09458755 0.69449997
-0.0478453 -0.09546794 0.69400001
0.016722221 -0.0956055 0.69499999
0.019517504 -0.09533038 0.69300002
0.025240676 -0.09546794 0.69400001
0.02810842 -0.09458755 0.69449997
0.030029727 -0.093704432 0.69499999
-0.11998212 -0.091671266 0.69400001
-0.087710388 -0.091671266 0.69400001
-0.084985152 -0.091803357 0.69499999
0.016698159 -0.091671266 0.69400001
0.025204308 -0.091539182 0.69300002
0.028128656 -0.091803357 0.69499999
-0.11791363 -0.089643575 0.69300002
-0.11412243 -0.087747976 0.69300002
-0.078218699 -0.088825129 0.69400001
0.016698159 -0.088822395 0.69400001
0.019517504 -0.087747976 0.69300002
0.022360906 -0.087747976 0.69300002
0.028047713 -0.087747976 0.69300002
0.030029727 -0.089902282 0.69499999
-0.11238877 -0.085976258 0.69400001
-0.10859209 -0.084077924 0.69400001
-0.074475639 -0.085089028 0.69449997
0.014778498 -0.08585237 0.69300002
0.022393173 -0.084077924 0.69400001
0.025240676 -0.084077924 0.69400001
0.029943312 -0.08585237 0.69300002
0.030029727 -0.084199071 0.69499999
-0.10859209 -0.082179584 0.69400001
-0.072523683 -0.082179584 0.69400001
0.013830697 -0.082061164 0.69300002
0.016674099 -0.083956771 0.69300002
0.018569702 -0.083956771 0.69300002
0.02615211 -0.082061164 0.69300002
0.028047713 -0.083956771 0.69300002
-0.10392175 -0.079389915 0.69449997
-0.074475639 -0.079388544 0.69449997
0.012901486 -0.078382909 0.69400001
0.016674099 -0.080165565 0.69300002
0.019517504 -0.080165565 0.69300002
0.022425437 -0.08039692 0.69499999
0.024326509 -0.08039692 0.69499999
0.029015748 -0.079275608 0.69350004
-0.099100411 -0.076484568 0.69400001
-0.097062014 -0.076374359 0.69300002
0.013849286 -0.076484568 0.69400001
0.019545667 -0.076484568 0.69400001
0.022360906 -0.076374359 0.69300002
0.025223175 -0.076429464 0.69350004
0.028128656 -0.076594777 0.69499999
-0.097342126 -0.074693702 0.69499999
-0.093405396 -0.072687894 0.69400001
-0.076320365 -0.074586235 0.69400001
-0.051641978 -0.072687894 0.69400001
-0.049743641 -0.072687894 0.69400001
-0.046828561 -0.072583161 0.69300002
0.011019004 -0.074693702 0.69499999
0.013830697 -0.072583161 0.69300002
0.016674099 -0.072583161 0.69300002
0.019545667 -0.072687894 0.69400001
0.022393173 -0.072687894 0.69400001
0.028047713 -0.07447876 0.69300002
-0.09353999 -0.070891559 0.69499999
-0.091375202 -0.070687562 0.69300002
-0.055358771 -0.070687562 0.69300002
0.011003149 -0.070789561 0.69400001
0.020465303 -0.070687562 0.69300002
0.022360906 -0.070687562 0.69300002
0.025204308 -0.070687562 0.69300002
0.028088184 -0.070789561 0.69400001
-0.0876472 -0.067892417 0.69350004
-0.082904086 -0.067893788 0.69350004
-0.05733699 -0.06889122 0.69400001
0.011019004 -0.067089416 0.69499999
0.013850654 -0.06889122 0.69400001
0.016674099 -0.068791956 0.69300002
0.019545667 -0.06889122 0.69400001
0.022425437 -0.068990484 0.69499999
0.024326509 -0.068990484 0.69499999
0.028088184 -0.066992886 0.69400001
0.011003149 -0.063196212 0.69400001
0.013849286 -0.065094545 0.69400001
0.016674099 -0.06500075 0.69300002
0.019545667 -0.065094545 0.69400001
0.022393173 -0.065094545 0.69400001
0.025277045 -0.065188341 0.69499999
0.028128656 -0.063287273 0.69499999
0.013839992 -0.061253712 0.69350004
0.026189845 -0.061297871 0.69400001
-0.066828676 -0.059399538 0.69400001
0.014799823 -0.059399538 0.69400001
0.0043614255 -0.05279268 0.69449997
0.0071960906 -0.053627141 0.69300002
0.010055348 -0.053704523 0.69400001
0.016674099 -0.051731542 0.69300002
-0.10399587 -0.04807869 0.69499999
-0.10004958 -0.048009511 0.69400001
-0.09720207 -0.048009511 0.69400001
-0.094421864 -0.0480441 0.69449997
0.0053081373 -0.049907852 0.69400001
0.013861317 -0.049943808 0.69449997
0.016698159 -0.048009511 0.69400001
-0.10874856 -0.046177618 0.69499999
-0.10684749 -0.046177618 0.69499999
-0.10399587 -0.046177618 0.69499999
-0.10114427 -0.046177618 0.69499999
-0.094490521 -0.046177618 0.69499999
0.0053081373 -0.046111178 0.69400001
0.014799823 -0.046111178 0.69400001
-0.12739164 -0.042253532 0.69300002
-0.12179264 -0.043231819 0.69350004
-0.11898973 -0.043247744 0.69375002
-0.11544196 -0.0435385 0.69333339
-0.10911965 -0.042905722 0.69333339
-0.10669375 -0.042314503 0.69400001
-0.10464441 -0.042253532 0.69300002
-0.10031746 -0.043558825 0.6936667
-0.097342126 -0.044276547 0.69499999
-0.094287269 -0.043231815 0.69350004
-0.091375202 -0.043201335 0.69300002
-0.088933818 -0.043557912 0.6936667
-0.085812047 -0.04421284 0.69400001
-0.063032001 -0.04421284 0.69400001
0.0043526879 -0.043201335 0.69300002
0.010987294 -0.042253532 0.69300002
0.013861317 -0.042344987 0.69449997
0.016722221 -0.044276547 0.69499999
-0.12928724 -0.040357929 0.69300002
-0.09800981 -0.040357929 0.69300002
-0.088787302 -0.0404744 0.69499999
-0.084034622 -0.0404744 0.69499999
-0.082133554 -0.0404744 0.69499999
-0.079167865 -0.040416162 0.69400001
-0.073419236 -0.040387046 0.69350004
0.0034098001 -0.040416162 0.69400001
0.018623294 -0.0404744 0.69499999
-0.12966037 -0.037622791 0.69499999
-0.10843562 -0.038462326 0.69300002
-0.10669375 -0.038517829 0.69400001
-0.1041123 -0.037234679 0.6936667
-0.10099874 -0.036619488 0.69400001
-0.09800981 -0.036566723 0.69300002
-0.093902677 -0.037830457 0.69300002
-0.091375202 -0.037514523 0.69300002
-0.084034622 -0.036672253 0.69499999
-0.082133554 -0.036672253 0.69499999
-0.079281941 -0.036672253 0.69499999
-0.076320365 -0.038517829 0.69400001
-0.073472857 -0.038517829 0.69400001
-0.025065256 -0.036619488 0.69400001
0.0053004888 -0.038462326 0.69300002
0.013852022 -0.037567288 0.69400001
0.016722221 -0.036672253 0.69499999
-0.1258582 -0.034771185 0.69499999
-0.120155 -0.034771185 0.69499999
-0.11808378 -0.034721155 0.69400001
-0.11540231 -0.034771185 0.69499999
-0.11255071 -0.034771185 0.69499999
-0.1096991 -0.034771185 0.69499999
-0.099243209 -0.034771185 0.69499999
-0.097342126 -0.034771185 0.69499999
-0.057419606 -0.034771185 0.69499999
-0.02502914 -0.034671124 0.69300002
0.012920075 -0.034771185 0.69499999
-0.12481713 -0.032846466 0.69449997
-0.12188045 -0.032822818 0.69400001
-0.11980924 -0.032775521 0.69300002
-0.11515257 -0.032799169 0.69350004
-0.11238877 -0.032822818 0.69400001
-0.10954126 -0.032822818 0.69400001
-0.10392175 -0.032846466 0.69449997
-0.09720207 -0.030924477 0.69400001
-0.094287269 -0.031849999 0.69350004
-0.091638908 -0.03287011 0.69499999
-0.076320365 -0.032822818 0.69400001
-0.074529253 -0.03287011 0.69499999
0.0034073435 -0.031849999 0.69350004
0.016722221 -0.031919573 0.69499999
-0.10114427 -0.029067965 0.69499999
-0.097787254 -0.028378509 0.6936667
-0.093947537 -0.027733611 0.69333339
-0.091572985 -0.028096516 0.69449997
-0.023133541 -0.028984318 0.69300002
0.0015114628 -0.029026141 0.69400001
0.013841359 -0.027108259 0.69350004
0.016722221 -0.027166892 0.69499999
0.018596498 -0.029026141 0.69400001
-0.10099874 -0.025229467 0.69400001
-0.089608714 -0.025229467 0.69400001
0.0015136407 -0.02526582 0.69499999
0.016674099 -0.025193114 0.69300002
0.018596498 -0.025229467 0.69400001
-0.10274882 -0.02140191 0.69300002
-0.10114427 -0.023364747 0.69499999
-0.09800981 -0.023297511 0.69300002
-0.094218612 -0.023297511 0.69300002
-0.091507055 -0.021432793 0.69400001
-0.089737833 -0.021463675 0.69499999
-0.021268582 -0.02333113 0.69400001
0.0015136407 -0.023364747 0.69499999
0.013830697 -0.023297511 0.69300002
0.016698159 -0.02333113 0.69400001
0.018569702 -0.02140191 0.69300002
-0.10304534 -0.019562602 0.69499999
-0.10085321 -0.019506309 0.69300002
-0.098957613 -0.019506309 0.69300002
-0.094353199 -0.019534456 0.69400001
0.0015092851 -0.019506309 0.69300002
0.011003149 -0.019534456 0.69400001
0.014821148 -0.019562602 0.69499999
0.016722221 -0.019562602 0.69499999
-0.10114427 -0.015760459 0.69499999
-0.098079845 -0.015726443 0.69350004
-0.093405396 -0.017636118 0.69400001
-0.091507055 -0.017636118 0.69400001
-0.089608714 -0.017636118 0.69400001
-0.019398157 -0.017661531 0.69499999
0.0015114628 -0.015737781 0.69400001
0.014778498 -0.015715105 0.69300002
0.016698159 -0.015737781 0.69400001
0.018569702 -0.017610706 0.69300002
0.018569702 -0.013819504 0.69300002
-0.058328833 -0.010050005 0.69449997
-0.055438653 -0.01004277 0.69400001
-0.053463165 -0.011923902 0.69300002
0.0015114628 -0.01004277 0.69400001
0.013841359 -0.011932505 0.69350004
0.016698159 -0.011941108 0.69400001
0.018596498 -0.010993307 0.69400001
-0.051679183 -0.0071997643 0.69449997
0.0015136407 -0.0081561683 0.69499999
0.010987294 -0.008132698 0.69300002
0.013839992 -0.0071907644 0.69350004
0.016722221 -0.0081561683 0.69499999
0.018596498 -0.006246096 0.69400001
0.0015114628 -0.0043477588 0.69400001
0.0034048869 -0.0043414943 0.69300002
0.014778498 -0.0043414943 0.69300002
0.016674099 -0.0043414943 0.69300002
0.018623294 -0.0043540234 0.69499999
-0.063981168 -0.0024494214 0.69400001
-0.06113366 -0.0024494214 0.69400001
-0.00038687425 -0.0024494214 0.69400001
0.0015136407 -0.00055187842 0.69499999
0.0034098001 -0.00055108435 0.69400001
0.014778498 -0.00055029028 0.69300002
0.016674099 -0.00055029028 0.69300002
0.018623294 -0.00055187842 0.69499999
-0.063032001 0.0013472527 0.69400001
-0.059320677 0.001349194 0.69499999
-0.0003874317 0.001349194 0.69499999
0.0034098001 0.0032455898 0.69400001
0.0072064749 0.0051439269 0.69400001
0.010061908 0.0051476331 0.69449997
0.016674099 0.0032409132 0.69300002
-0.030804591 0.010854556 0.69499999
-0.053540312 0.012737276 0.69400001
-0.057254374 0.018405728 0.69300002
-0.047914241 0.018458845 0.69499999
-0.21330754 0.029865282 0.69499999
-0.080232471 0.041271716 0.69499999
-0.080232471 0.045073863 0.69499999
-0.072523683 0.056399029 0.69400001
-0.072523683 0.058297366 0.69400001
-0.08415553 -0.14714587 0.69599998
-0.076760247 -0.1475687 0.69800001
-0.076650277 -0.14545076 0.69700003
-0.073736839 -0.14248796 0.6965
-0.068925075 -0.13953064 0.69599998
-0.095715709 -0.13210495 0.69700003
-0.065304577 -0.13420376 0.69800001
-0.093809173 -0.13019842 0.69700003
-0.061309837 -0.1309635 0.69599998
-0.093809173 -0.12829186 0.69700003
-0.058536746 -0.12733722 0.69700003
-0.089866951 -0.12430018 0.69599998
-0.055598415 -0.12430018 0.69599998
-0.12431386 -0.12066568 0.69700003
-0.11668769 -0.12066568 0.69700003
-0.085589595 -0.12199441 0.69733334
-0.055598415 -0.12239637 0.69599998
-0.049958672 -0.12066568 0.69700003
-0.049958672 -0.11875915 0.69700003
0.02058343 -0.11875915 0.69700003
0.022489972 -0.11875915 0.69700003
0.025332285 -0.11867395 0.6965
0.028169129 -0.11858876 0.69599998
0.030159352 -0.11892954 0.69800001
-0.12812695 -0.1168526 0.69700003
-0.11009302 -0.11598179 0.69749999
-0.082369909 -0.1168526 0.69700003
-0.078669526 -0.11511098 0.69800001
-0.048052125 -0.11494607 0.69700003
-0.047983181 -0.11668494 0.69599998
0.019644924 -0.11598179 0.69749999
0.022522239 -0.11511098 0.69800001
0.025368655 -0.11502852 0.69749999
0.028169129 -0.11478114 0.69599998
0.031047812 -0.1148636 0.6965
-0.10524842 -0.11113297 0.69700003
-0.076540299 -0.11287733 0.69599998
-0.072837189 -0.11113297 0.69700003
-0.046145584 -0.11208625 0.69700003
0.018703682 -0.1132017 0.69800001
0.026303057 -0.11208487 0.69700003
0.032045662 -0.11216597 0.69749999
-0.13384658 -0.10922644 0.69700003
-0.10319361 -0.10906972 0.69599998
-0.074850969 -0.10938314 0.69800001
-0.070828877 -0.11097352 0.69599998
-0.043254033 -0.10914808 0.6965
0.016794402 -0.10938314 0.69800001
0.019601993 -0.11002162 0.69599998
0.022457704 -0.11097352 0.69599998
0.024361512 -0.11097352 0.69599998
0.028169129 -0.11097352 0.69599998
0.03102484 -0.11002162 0.69599998
-0.1012898 -0.10716591 0.69599998
-0.070879765 -0.106291 0.6965
-0.068925075 -0.10716591 0.69599998
-0.043254033 -0.1072429 0.6965
-0.040425956 -0.10731989 0.69700003
0.014885125 -0.10556458 0.69800001
0.016746281 -0.1052621 0.69599998
0.01865009 -0.10716591 0.69599998
0.026303058 -0.10731989 0.69700003
0.028189367 -0.106291 0.6965
0.030137748 -0.1064436 0.69749999
-0.095853031 -0.10365531 0.69800001
-0.067213856 -0.10365531 0.69800001
-0.06521102 -0.1035068 0.69700003
0.016770342 -0.1035068 0.69700003
0.026265319 -0.1033583 0.69599998
0.028250076 -0.10365531 0.69800001
-0.13384658 -0.099693716 0.69700003
-0.091902621 -0.10160026 0.69700003
-0.089996077 -0.099693716 0.69700003
-0.065304577 -0.10174602 0.69800001
-0.057502225 -0.099550672 0.69599998
0.014863799 -0.10160026 0.69700003
0.016770342 -0.099693716 0.69700003
0.026265319 -0.099550672 0.69599998
0.028169129 -0.10050258 0.69599998
0.0314034 -0.10037781 0.69733334
-0.086306639 -0.096972831 0.69800001
-0.059576739 -0.097927473 0.69800001
-0.053848904 -0.096018188 0.69800001
-0.04621179 -0.096018188 0.69800001
0.014874462 -0.096902683 0.69749999
0.031976745 -0.09764687 0.69599998
-0.12622041 -0.093974091 0.69700003
-0.087963149 -0.09574306 0.69599998
-0.08415553 -0.093839258 0.69599998
-0.08248809 -0.094108917 0.69800001
-0.052742705 -0.094791159 0.69599998
-0.048052125 -0.093974091 0.69700003
0.014842473 -0.093839258 0.69599998
0.030116145 -0.095880628 0.69700003
-0.12154186 -0.09118031 0.69749999
-0.082251728 -0.091935448 0.69599998
0.014842473 -0.090031639 0.69599998
0.031092389 -0.091178954 0.69749999
-0.11668769 -0.088254459 0.69700003
-0.076540299 -0.088127837 0.69599998
0.014885125 -0.088381082 0.69800001
0.030116145 -0.088254459 0.69700003
-0.11461646 -0.086224027 0.69599998
-0.11096805 -0.084441371 0.69700003
-0.07288944 -0.08545658 0.69749999
0.013592769 -0.085075974 0.69700003
0.032022689 -0.085393272 0.69700003
-0.11112726 -0.082653239 0.69800001
0.011066567 -0.082653239 0.69800001
0.031976745 -0.082416408 0.69599998
-0.10715497 -0.080628283 0.69700003
0.011066567 -0.078834683 0.69800001
0.013899865 -0.080570444 0.6965
0.026303058 -0.080628283 0.69700003
0.0314034 -0.080030411 0.69733334
-0.10143534 -0.076815195 0.69700003
-0.038574677 -0.075016126 0.69800001
0.030159352 -0.076925404 0.69800001
-0.099528804 -0.074908651 0.69700003
-0.095715709 -0.073002115 0.69700003
-0.053848904 -0.073106848 0.69800001
-0.03475612 -0.073106848 0.69800001
0.011050713 -0.073002115 0.69700003
0.025332285 -0.072949737 0.6965
0.028250076 -0.073106848 0.69800001
0.030072935 -0.074801177 0.69599998
-0.095853031 -0.071197569 0.69800001
-0.089866951 -0.069089748 0.69599998
-0.057667464 -0.071197569 0.69800001
0.011066567 -0.069288291 0.69800001
0.026265319 -0.069089748 0.69599998
0.028209604 -0.06918902 0.69700003
0.030116145 -0.071095571 0.69700003
-0.089996077 -0.067282483 0.69700003
-0.061309837 -0.067185946 0.69599998
0.0091572888 -0.067379013 0.69800001
0.030159352 -0.067379013 0.69800001
-0.065117456 -0.065282136 0.69599998
0.010098808 -0.064424038 0.69700003
0.028209604 -0.065375939 0.69700003
0.011050713 -0.061562851 0.69700003
0.028250076 -0.061651174 0.69800001
0.011050713 -0.059656307 0.69700003
0.012938665 -0.059570715 0.69599998
0.016794402 -0.057832621 0.69800001
0.019615391 -0.057708338 0.6965
0.022457704 -0.057666909 0.69599998
0.024396515 -0.057749767 0.69700003
0.028169129 -0.059570715 0.69599998
0.0034294531 -0.054014061 0.69800001
0.016794402 -0.055923339 0.69800001
0.019630158 -0.055843219 0.69700003
-0.06521102 -0.052983407 0.69700003
0.012938665 -0.05385929 0.69599998
0.01865009 -0.051955484 0.69599998
-0.12726559 -0.048251636 0.69749999
-0.12413549 -0.048147865 0.69599998
-0.12136623 -0.048182458 0.6965
-0.11494582 -0.048286226 0.69800001
-0.1128746 -0.048217047 0.69700003
-0.10985693 -0.048147865 0.69599998
-0.10700122 -0.048147865 0.69599998
-0.091770761 -0.048147865 0.69599998
-0.030848915 -0.050051678 0.69599998
0.0015201746 -0.048286226 0.69800001
0.0034196265 -0.050051678 0.69599998
0.016770342 -0.050123595 0.69700003
0.018703682 -0.048286226 0.69800001
-0.12735613 -0.046376947 0.69800001
-0.12413549 -0.046244059 0.69599998
-0.12145405 -0.046310507 0.69700003
-0.11478115 -0.046310507 0.69700003
-0.11271265 -0.046244059 0.69599998
-0.11080883 -0.046244059 0.69599998
-0.099528804 -0.046310507 0.69700003
-0.097622253 -0.046310507 0.69700003
-0.091770761 -0.046244059 0.69599998
-0.089042813 -0.046310507 0.69700003
-0.086306639 -0.046376947 0.69800001
-0.063213646 -0.046244059 0.69599998
0.0034196265 -0.046244059 0.69599998
0.016794402 -0.046376947 0.69800001
-0.13022006 -0.04351303 0.69800001
-0.099528804 -0.042497419 0.69700003
-0.097762316 -0.042558391 0.69800001
-0.087963149 -0.042436443 0.69599998
-0.084953181 -0.043152343 0.69733334
-0.082369909 -0.044403963 0.69700003
-0.079509407 -0.043450005 0.69700003
-0.076650277 -0.043450691 0.69700003
-0.074850969 -0.04351303 0.69800001
-0.063304476 -0.042497419 0.69700003
-0.027041299 -0.042436443 0.69599998
0.0015158186 -0.044340253 0.69599998
0.0034245399 -0.042497419 0.69700003
0.016746281 -0.042436443 0.69599998
0.018676886 -0.044403963 0.69700003
-0.086059339 -0.040532634 0.69599998
-0.063304476 -0.040590875 0.69700003
0.020612961 -0.040649112 0.69800001
-0.10319361 -0.038628828 0.69599998
-0.1004093 -0.038656581 0.6965
-0.09748219 -0.038628828 0.69599998
-0.090125196 -0.038739834 0.69800001
-0.08891505 -0.036725022 0.69599998
-0.086059339 -0.036725022 0.69599998
-0.079510093 -0.038684335 0.69700003
-0.070930652 -0.036777787 0.69700003
-0.063395299 -0.036830552 0.69800001
-0.061353885 -0.037704676 0.6965
0.0015201746 -0.036830552 0.69800001
0.0034245397 -0.03773243 0.69700003
0.014842473 -0.038628828 0.69599998
0.016746281 -0.038628828 0.69599998
0.019644924 -0.036804169 0.69749999
-0.12812695 -0.034871247 0.69700003
-0.12413549 -0.034821212 0.69599998
-0.12223168 -0.034821212 0.69599998
-0.10604931 -0.034821212 0.69599998
-0.10334188 -0.034871247 0.69700003
-0.1012898 -0.034821212 0.69599998
-0.094626471 -0.034821212 0.69599998
-0.091902621 -0.034871247 0.69700003
-0.089106001 -0.034896262 0.69749999
-0.086306639 -0.034921277 0.69800001
-0.076650277 -0.034871247 0.69700003
-0.073684588 -0.034821212 0.69599998
-0.071032412 -0.033011995 0.69800001
-0.057667464 -0.033011995 0.69800001
0.0034245399 -0.034871247 0.69700003
0.014885125 -0.034921277 0.69800001
0.018703682 -0.033011995 0.69800001
-0.12812695 -0.032964703 0.69700003
-0.11685509 -0.031102717 0.69800001
-0.11112726 -0.031102717 0.69800001
-0.10700122 -0.032917406 0.69599998
-0.10349015 -0.031102717 0.69800001
-0.1003379 -0.031013597 0.69599998
-0.093674578 -0.031013597 0.69599998
-0.092034474 -0.031102717 0.69800001
-0.08891505 -0.032917406 0.69599998
-0.085107431 -0.032917406 0.69599998
-0.082369909 -0.032964703 0.69700003
-0.079453737 -0.032941055 0.6965
-0.072732687 -0.032917406 0.69599998
-0.055678304 -0.031058159 0.69700003
0.0015158186 -0.031965502 0.69599998
0.018703682 -0.031102717 0.69800001
-0.11876438 -0.02919344 0.69800001
-0.11590046 -0.02919344 0.69800001
-0.11303654 -0.02919344 0.69800001
-0.10319361 -0.029109789 0.69599998
-0.10055484 -0.027264616 0.69749999
-0.089275397 -0.028488217 0.69633335
-0.0003891041 -0.02919344 0.69800001
0.0015158186 -0.027205981 0.69599998
0.019631526 -0.02819971 0.69700003
-0.10319361 -0.025302174 0.69599998
-0.088089541 -0.025338531 0.69700003
-0.021360522 -0.025338531 0.69700003
0.02058343 -0.025338531 0.69700003
-0.10539942 -0.021556325 0.69800001
-0.10334188 -0.023431985 0.69700003
-0.091770761 -0.023398366 0.69599998
-0.089042813 -0.022478715 0.69700003
-0.0517908 -0.023398366 0.69599998
-0.00038854664 -0.021525443 0.69700003
0.01961676 -0.022461904 0.6965
-0.10539942 -0.019647047 0.69800001
-0.091013908 -0.019632973 0.69749999
0.012938665 -0.01959075 0.69599998
0.01865009 -0.01959075 0.69599998
-0.10509741 -0.017686943 0.69599998
-0.10349015 -0.01582849 0.69800001
-0.095715709 -0.015805813 0.69700003
-0.090125196 -0.01582849 0.69800001
-0.088089541 -0.017712357 0.69700003
-0.00038854664 -0.017712357 0.69700003
0.019630158 -0.016759085 0.69700003
-0.057667464 -0.012009933 0.69800001
-0.055758186 -0.012964572 0.69800001
-0.023300448 -0.012009933 0.69800001
-0.00038798916 -0.013879327 0.69599998
0.020598195 -0.012954601 0.69749999
-0.061486017 -0.010100653 0.69800001
-0.0003891041 -0.010100653 0.69800001
0.0015158186 -0.011975519 0.69599998
0.020553896 -0.010071712 0.69599998
-0.064304531 -0.0062775966 0.69749999
-0.061309837 -0.0062640961 0.69599998
-0.05855877 -0.0072299857 0.69725001
-0.055758186 -0.0072367359 0.69800001
-0.053733181 -0.0072205001 0.6965
-0.03279978 -0.0062730969 0.69700003
-0.00038854664 -0.0062730969 0.69700003
0.014842473 -0.0081679039 0.69599998
0.019644924 -0.0072308681 0.69749999
-0.064257748 -0.0043665534 0.69700003
-0.061397929 -0.0043665534 0.69700003
-0.048121065 -0.0043728179 0.69800001
-0.046145584 -0.0043665534 0.69700003
-0.043223664 -0.0043602884 0.69599998
-0.040367953 -0.0043602884 0.69599998
-0.038519412 -0.0043665534 0.69700003
-0.0003891041 -0.0043728179 0.69800001
-0.067213856 -0.0024635391 0.69800001
-0.063304476 -0.00055346655 0.69700003
-0.061397929 -0.00055346655 0.69700003
-0.058884323 -0.0018247602 0.69733334
-0.055758186 -0.0024635391 0.69800001
-0.037620038 -0.0024635391 0.69800001
-0.03475612 -0.0024635391 0.69800001
-0.00038854664 -0.00055346655 0.69700003
0.02058343 -0.0024600099 0.69700003
-0.068925075 0.0013511353 0.69599998
-0.061309837 0.0013511353 0.69599998
-0.057584845 0.0013530767 0.69700003
-0.037567507 0.0013530767 0.69700003
-0.034656528 0.0013511353 0.69599998
-0.03279978 0.0013530767 0.69700003
0.020553896 0.0013511353 0.69599998
-0.0003891041 0.0032642963 0.69800001
0.0015158186 0.0032549431 0.69599998
0.0053234342 0.0051587508 0.69599998
0.01392119 0.0051698694 0.69749999
0.01865009 0.0032549431 0.69599998
-0.030937562 0.0089921318 0.69800001
-0.032846838 0.010901411 0.69800001
-0.029028282 0.010901411 0.69800001
-0.22950254 0.012810689 0.69800001
-0.21361446 0.026100636 0.69599998
-0.2237747 0.041449867 0.69800001
-0.22345412 0.045203574 0.69700003
-0.22950254 0.049086984 0.69800001
-0.050030351 0.052905541 0.69800001
-0.090512544 -0.14436798 0.70099998
-0.07517267 -0.14628547 0.70099998
-0.073046193 -0.14395609 0.699
-0.07123594 -0.1422473 0.69999999
-0.094078347 -0.13822006 0.699
-0.067310147 -0.13822006 0.699
-0.065398134 -0.13630804 0.699
-0.096265003 -0.13478056 0.70099998
-0.063576944 -0.1345883 0.69999999
-0.059747446 -0.13267355 0.69999999
-0.096196339 -0.12989345 0.70050001
-0.059747446 -0.13075881 0.69999999
-0.092166327 -0.12674797 0.699
-0.057832696 -0.12884405 0.69999999
-0.05599783 -0.12711062 0.70099998
-0.09229818 -0.12501456 0.69999999
-0.054003198 -0.12501456 0.69999999
-0.08840549 -0.1220545 0.69949996
-0.053926051 -0.12292395 0.699
0.019713283 -0.12118505 0.69999999
0.022586772 -0.12118505 0.69999999
0.025477763 -0.12127161 0.70050001
-0.12676366 -0.1192703 0.69999999
-0.1151105 -0.11909992 0.699
-0.1096874 -0.1175232 0.70099998
-0.084639192 -0.11831156 0.69999999
-0.048258949 -0.1192703 0.69999999
-0.046344198 -0.11735555 0.69999999
0.016842524 -0.11735555 0.69999999
0.018730478 -0.11909992 0.699
0.032114577 -0.11909992 0.699
0.034075268 -0.11735555 0.69999999
-0.13077973 -0.11560572 0.70099998
-0.080809683 -0.11544081 0.69999999
-0.046277996 -0.1152759 0.699
0.01878407 -0.11560572 0.70099998
-0.13231862 -0.11336388 0.699
-0.10570142 -0.11352605 0.69999999
-0.078782231 -0.11336388 0.699
-0.077090159 -0.11177074 0.70099998
-0.074958205 -0.11145186 0.699
-0.044365983 -0.11240786 0.699
0.016866583 -0.11272949 0.70099998
0.018730478 -0.11145186 0.699
0.034123946 -0.11368823 0.70099998
-0.1017264 -0.10953985 0.699
-0.040541954 -0.10953985 0.699
-0.038740467 -0.10985327 0.70099998
0.014927775 -0.10969656 0.69999999
0.034026589 -0.10953985 0.699
-0.13633741 -0.10586705 0.69999999
-0.099814393 -0.10762783 0.699
-0.098182492 -0.10793578 0.70099998
-0.095990352 -0.10571582 0.699
-0.073150694 -0.10682306 0.69999999
-0.037754096 -0.10690005 0.70050001
0.016818464 -0.10762783 0.699
0.032114577 -0.10667183 0.699
-0.13633741 -0.10395231 0.69999999
-0.094347522 -0.10410081 0.70099998
-0.090512544 -0.10218333 0.70099998
-0.069321193 -0.10395231 0.69999999
-0.067406438 -0.10203756 0.69999999
-0.038629938 -0.10380381 0.699
0.0139704 -0.10299493 0.69999999
0.03020256 -0.10380381 0.699
0.034075268 -0.10203756 0.69999999
-0.13614266 -0.10189179 0.699
-0.08859507 -0.10026584 0.70099998
-0.063576944 -0.1001228 0.69999999
-0.061574105 -0.099979773 0.699
-0.059662092 -0.099979773 0.699
0.014927775 -0.1001228 0.69999999
-0.13346666 -0.098208062 0.69999999
-0.12867841 -0.096293308 0.69999999
-0.0847601 -0.096430868 0.70099998
-0.063667767 -0.098348357 0.70099998
-0.061574105 -0.098067768 0.699
-0.057915315 -0.096430868 0.70099998
-0.055838067 -0.096155748 0.699
-0.0425147 -0.098208062 0.69999999
0.013013026 -0.098208062 0.69999999
0.032160521 -0.096293308 0.69999999
0.034075268 -0.098208062 0.69999999
-0.080925129 -0.094513394 0.70099998
-0.057915315 -0.094513394 0.70099998
-0.055838067 -0.094243743 0.699
0.013013026 -0.094378568 0.69999999
0.032114577 -0.094243743 0.699
-0.12310979 -0.090678416 0.70099998
-0.080694243 -0.092331722 0.699
-0.076870218 -0.09041971 0.699
