# .PCD v0.7 - Point Cloud Data file format
VERSION 0.7
FIELDS x y z
SIZE 4 4 4
TYPE F F F
COUNT 1 1 1
WIDTH 1315
HEIGHT 1
VIEWPOINT 0 0 0 1 0 0 0
POINTS 1315
DATA ascii
0.034667972 -0.03573468 0.59122729
0.035730164 -0.035730164 0.59115255
0.036798943 -0.035732307 0.59118801
0.037874028 -0.035740279 0.59131992
0.038957238 -0.035755273 0.59156799
0.040051423 -0.035779271 0.59196502
0.041158162 -0.035812948 0.5925222
0.042281527 -0.035859019 0.59328443
0.043435093 -0.035927795 0.59442234
0.044645451 -0.036039099 0.59626389
0.059410993 -0.035860687 0.59331208
0.060235161 -0.035714652 0.59089595
0.061167609 -0.035636779 0.58960754
0.062131859 -0.035579782 0.58866453
0.063115716 -0.035535738 0.58793581
0.064113602 -0.035500918 0.58735973
0.065123938 -0.035474014 0.5869146
0.066146001 -0.035454258 0.58658773
0.067176446 -0.03543954 0.58634424
0.068214886 -0.035429437 0.58617705
0.069263622 -0.035424903 0.58610207
0.070323259 -0.035426002 0.58612025
0.071391836 -0.035431504 0.58621126
0.07247036 -0.035441712 0.58638012
0.073563963 -0.035458889 0.58666432
0.074672766 -0.035482805 0.58706003
0.075800128 -0.035514746 0.58758849
0.076952241 -0.03555724 0.58829159
-0.062630378 -0.034794655 0.59338772
-0.061324563 -0.03466171 0.59112048
-0.060141038 -0.034594402 0.58997262
-0.058997016 -0.034547802 0.58917791
-0.057876676 -0.034513615 0.58859485
-0.056772839 -0.034488175 0.58816099
-0.055683415 -0.034470685 0.58786273
-0.054605421 -0.034459732 0.58767593
-0.053535666 -0.034453645 0.58757216
-0.052472968 -0.034451947 0.58754319
-0.051418893 -0.034455959 0.58761162
-0.050372038 -0.034465078 0.58776712
-0.049329992 -0.034477949 0.58798665
-0.048294652 -0.034496181 0.58829755
-0.047267012 -0.034520853 0.5887183
-0.04624673 -0.034552153 0.58925211
-0.045234315 -0.034590945 0.58991367
-0.044232383 -0.034639817 0.59074712
-0.043245792 -0.034703415 0.59183168
-0.0422864 -0.034792606 0.59335279
-0.030433934 -0.034705363 0.59186494
-0.029401736 -0.034747507 0.59258366
-0.028377227 -0.034802262 0.59351742
-0.027365584 -0.034877706 0.59480405
-0.026398292 -0.035018142 0.59719908
-0.016711403 -0.03504004 0.59757251
-0.015550289 -0.034854095 0.59440142
-0.014401454 -0.034670167 0.59126472
-0.013264679 -0.034488168 0.58816087
-0.012139779 -0.034308068 0.5850895
-0.011026566 -0.034129847 0.58205009
-0.0099248849 -0.033953551 0.57904357
-0.0088345287 -0.033779081 0.5760681
-0.0077553196 -0.033606384 0.57312298
-0.0067213546 -0.033606775 0.57312959
-0.0056910561 -0.033628967 0.57350808
-0.0016173896 -0.035043441 0.5976305
-0.00053651299 -0.034873344 0.59472966
0.00053390604 -0.034703892 0.59183985
0.0015939719 -0.034536056 0.58897758
0.0026438334 -0.034369834 0.58614284
0.0036836376 -0.034205206 0.58333528
0.0047135288 -0.034042154 0.58055454
0.0057336465 -0.03388064 0.5778001
0.0067794845 -0.033897422 0.57808632
0.0078276945 -0.033920012 0.57847154
0.010125858 -0.034641095 0.59076887
0.011199419 -0.034664869 0.59117436
0.012276854 -0.034695458 0.59169602
0.013359663 -0.034735125 0.59237248
0.014450467 -0.034788162 0.59327698
0.015554786 -0.034864176 0.59457332
0.016697859 -0.035011642 0.59708822
0.019717999 -0.034639727 0.59074557
0.020790039 -0.034650065 0.59092188
0.021862945 -0.034660768 0.59110439
0.022939229 -0.03467558 0.59135699
0.024016347 -0.03469028 0.59160769
0.02509745 -0.034709241 0.59193105
0.026180295 -0.034728963 0.59226739
0.027267499 -0.034752693 0.59267211
0.028358294 -0.034779038 0.59312141
0.029454831 -0.034810252 0.59365374
0.03049686 -0.03477712 0.59308869
0.031532209 -0.034738876 0.59243643
0.032574233 -0.034710251 0.59194827
0.033621907 -0.03468927 0.59159046
0.034674957 -0.034674957 0.59134638
0.035733759 -0.034667078 0.59121203
0.036798943 -0.03466567 0.59118801
0.037871707 -0.034671281 0.59128368
0.038951751 -0.034683064 0.59148467
0.040040798 -0.034702025 0.59180802
0.041141175 -0.034729563 0.59227765
0.04225662 -0.034768105 0.59293491
0.043393657 -0.034822069 0.59385526
0.044567332 -0.034902129 0.59522057
0.059212022 -0.034673706 0.59132504
0.060128551 -0.034587219 0.58985013
0.061089039 -0.034528587 0.5888502
0.062070046 -0.034483358 0.58807886
0.063067019 -0.034448374 0.58748221
0.064076774 -0.034421407 0.58702236
0.065096244 -0.034400456 0.58666503
0.066124134 -0.034384549 0.58639377
0.067160264 -0.034373362 0.58620298
0.068208799 -0.034368776 0.58612478
0.069265343 -0.034368299 0.58611667
0.070330478 -0.034372035 0.58618039
0.071407244 -0.034381263 0.58633775
0.072498061 -0.034396891 0.58660424
0.073601708 -0.034418061 0.58696532
0.074722938 -0.034446742 0.58745444
0.075867251 -0.034485113 0.58810878
0.077045336 -0.034537565 0.58900332
0.078278773 -0.034613062 0.59029084
-0.062430415 -0.033616379 0.59149319
-0.061225533 -0.033540946 0.59016591
-0.060073406 -0.033492252 0.58930916
-0.058947604 -0.03345675 0.58868444
-0.057841323 -0.033431225 0.58823532
-0.056749366 -0.033413179 0.5879178
-0.055668086 -0.033400852 0.5877009
-0.054595541 -0.033393387 0.58756959
-0.053531222 -0.033390764 0.5875234
-0.052476507 -0.033394139 0.58758283
-0.0514277 -0.033401493 0.58771223
-0.050384093 -0.033412609 0.58790779
-0.049348429 -0.033429582 0.58820641
-0.048319921 -0.033452254 0.58860534
-0.047298137 -0.033480704 0.58910596
-0.046284132 -0.033516094 0.58972865
-0.045280308 -0.033560697 0.59051347
-0.044291217 -0.033618633 0.59153289
-0.043326918 -0.033698715 0.59294194
-0.042450432 -0.033852875 0.59565443
-0.031453215 -0.033585638 0.59095228
-0.030410733 -0.033611864 0.59141374
-0.029372968 -0.033645399 0.59200382
-0.028340457 -0.033687714 0.59274834
-0.027315518 -0.0337427 0.59371585
-0.026304299 -0.033819813 0.59507269
-0.025363829 -0.033998325 0.59821367
-0.016702935 -0.033944678 0.59726971
-0.015542476 -0.033764686 0.59410274
-0.0143941 -0.033586234 0.59096277
-0.013257835 -0.033409745 0.58785737
-0.012134015 -0.033236649 0.58481169
-0.011021852 -0.033065554 0.58180124
-0.0099210804 -0.032896213 0.5788216
-0.0088315271 -0.032728598 0.57587236
-0.0077530192 -0.032562681 0.57295299
-0.0067219133 -0.032575425 0.57317722
-0.0056915297 -0.032596942 0.57355583
-0.0016187875 -0.033994537 0.59814703
-0.00053694495 -0.033827532 0.59520853
0.00053432008 -0.033662163 0.59229881
0.0015951621 -0.033498406 0.5894174
0.0026457328 -0.033336233 0.58656394
0.0036861803 -0.033175621 0.58373791
0.0047166506 -0.033016555 0.58093905
0.0057372893 -0.03285902 0.5781672
0.0067800554 -0.032857191 0.57813501
0.0078283492 -0.032879066 0.57851988
0.0090532443 -0.033550259 0.59032977
0.010121968 -0.033562314 0.5905419
0.011193682 -0.033581048 0.59087151
0.012268564 -0.033605196 0.59129643
0.013347678 -0.033636149 0.59184104
0.014432671 -0.033676233 0.59254634
0.01552646 -0.033729896 0.5934906
0.016635172 -0.033806965 0.59484661
0.020802988 -0.033604827 0.59128994
0.021879079 -0.033619072 0.59154058
0.022958918 -0.033637483 0.59186453
0.024040351 -0.033656489 0.59219897
0.025126388 -0.033680055 0.59261358
0.026214968 -0.033704959 0.59305179
0.027310003 -0.033735886 0.59359598
0.028409926 -0.033770289 0.59420133
0.029497698 -0.033788271 0.59451771
0.030519444 -0.033732019 0.59352791
0.031550549 -0.03368957 0.59278101
0.032588858 -0.033657346 0.59221405
0.033633135 -0.033633135 0.59178805
0.034683585 -0.033616398 0.59149355
0.035739876 -0.033606153 0.59131324
0.036802068 -0.033601891 0.59123826
0.037870873 -0.033603732 0.59127069
0.038946357 -0.033611238 0.59140277
0.040030189 -0.033625361 0.5916512
0.041125242 -0.033647925 0.59204829
0.042233165 -0.033679612 0.59260583
0.043358095 -0.033722963 0.59336859
0.044513982 -0.033787724 0.59450805
0.045728069 -0.033892568 0.59635288
0.058187634 -0.033631384 0.59175724
0.059095819 -0.033540871 0.5901646
0.060048822 -0.033478547 0.589068
0.061027125 -0.033432249 0.58825338
0.062022131 -0.033396531 0.58762491
0.063029237 -0.03336842 0.58713025
0.064046219 -0.033346377 0.5867424
0.065071627 -0.033329371 0.58644319
0.066108182 -0.033318523 0.58625233
0.067153901 -0.033312567 0.58614749
0.068207435 -0.033310607 0.58611304
0.069269568 -0.033312846 0.58615243
0.070345663 -0.03332163 0.58630699
0.071432382 -0.033335112 0.58654422
0.072530992 -0.033353668 0.58687067
0.073646314 -0.033379264 0.5873211
0.074783452 -0.033413883 0.5879302
0.075950675 -0.033460785 0.58875549
0.077169083 -0.033528633 0.58994931
0.078514263 -0.033648971 0.59206665
-0.063537441 -0.032569613 0.59186429
-0.062317651 -0.032490399 0.59042478
-0.061154071 -0.032438248 0.58947706
-0.060022507 -0.032401532 0.58880985
-0.058911584 -0.032374837 0.58832473
-0.057815511 -0.032355469 0.58797282
-0.056730833 -0.032341879 0.58772582
-0.055655405 -0.032333139 0.58756703
-0.054591011 -0.032330599 0.58752084
-0.053534009 -0.03233242 0.58755398
-0.052483167 -0.032338113 0.58765739
-0.051438849 -0.032348141 0.58783966
-0.050402261 -0.03236356 0.5881198
-0.049372427 -0.032384064 0.58849245
-0.048349097 -0.032409836 0.58896077
-0.047334015 -0.032442417 0.58955282
-0.046328425 -0.032483149 0.59029305
-0.045336585 -0.032535668 0.59124744
-0.044367183 -0.032607209 0.59254748
-0.043454681 -0.032725129 0.59469038
-0.032490809 -0.032490809 0.59043223
-0.031440362 -0.032506134 0.59071076
-0.030393073 -0.032525919 0.59107029
-0.029349554 -0.032551322 0.59153193
-0.028311506 -0.032584939 0.59214282
-0.027278585 -0.032627329 0.59291309
-0.026253097 -0.032682426 0.59391439
-0.025244355 -0.032763951 0.59539586
-0.016706437 -0.032873955 0.59739488
-0.015545753 -0.032699686 0.59422803
-0.0143975 -0.032527685 0.59110236
-0.01325187 -0.032334562 0.5875929
-0.012137451 -0.032190632 0.58497733
-0.011025121 -0.032025352 0.58197385
-0.0099242441 -0.031862047 0.5790062
-0.008834538 -0.031700399 0.5760687
-0.0077558327 -0.031540386 0.57316089
-0.0067224754 -0.031543922 0.57322514
-0.0056920042 -0.03156475 0.57360363
-0.0016186525 -0.032912601 0.59809715
-0.00053689076 -0.032750335 0.59514844
0.00053425663 -0.032589655 0.59222847
0.0015949504 -0.03243066 0.5893392
0.0026453452 -0.032273211 0.58647799
0.0036855415 -0.03211686 0.58363676
0.0047156517 -0.031961638 0.58081603
0.0057358523 -0.031807907 0.57802236
0.0067806351 -0.031816825 0.57818443
0.0078290133 -0.031837989 0.57856899
0.0090522319 -0.03248154 0.59026378
0.010119798 -0.032489877 0.5904153
0.011189249 -0.032502104 0.59063751
0.01226188 -0.032520637 0.59097427
0.013338149 -0.032545082 0.5914185
0.014419026 -0.032576319 0.59198612
0.015506309 -0.03261672 0.59272033
0.016603228 -0.03267087 0.59370434
0.017716553 -0.032748781 0.59512019
0.0208208 -0.032565866 0.59179622
0.021900903 -0.032584272 0.59213066
0.022985339 -0.032607108 0.59254569
0.02407215 -0.032631136 0.59298229
0.025165385 -0.032661457 0.59353328
0.026262593 -0.03269425 0.5941292
0.027368864 -0.032735307 0.59487534
0.028488006 -0.032788083 0.59583437
0.029531615 -0.032753244 0.59520131
0.030545233 -0.032688759 0.59402943
0.031571336 -0.032641552 0.5931716
0.032605823 -0.032605823 0.59252232
0.033647176 -0.032579008 0.59203506
0.034694336 -0.032559302 0.59167689
0.035747074 -0.032545842 0.59143233
0.036805581 -0.032538265 0.59129465
0.037870862 -0.032536939 0.59127051
0.038943954 -0.03254221 0.59136629
0.04002453 -0.032553285 0.59156758
0.041114338 -0.0325711 0.59189129
0.042215731 -0.032596957 0.59236121
0.043332554 -0.032633159 0.59301907
0.044471458 -0.032683842 0.59394008
0.045647904 -0.032759085 0.59530741
0.057175059 -0.032595128 0.59232795
0.058061998 -0.032493412 0.59047955
0.059010077 -0.032428961 0.58930832
0.059984695 -0.032381121 0.58843893
0.060976721 -0.032344174 0.58776754
0.06198132 -0.032315049 0.58723825
0.062995881 -0.032292005 0.58681953
0.064020589 -0.032274842 0.58650762
0.065055929 -0.03226351 0.58630168
0.066098921 -0.032256275 0.5861702
0.067149542 -0.03225293 0.58610946
0.0682116 -0.032255094 0.5861488
0.069284201 -0.032262109 0.58627623
0.070366926 -0.032273553 0.58648419
0.071461193 -0.032289874 0.58678079
0.072572611 -0.032313351 0.58720744
0.073704138 -0.032344982 0.5877822
0.074862108 -0.032387156 0.5885486
0.076061532 -0.032445826 0.58961481
0.077353612 -0.032541864 0.59136003
-0.064660765 -0.031528801 0.59237242
-0.063410662 -0.031438902 0.59068334
-0.062237099 -0.03138452 0.5896616
-0.061098412 -0.031346142 0.58894056
-0.059982169 -0.031318124 0.58841413
-0.058881857 -0.031297565 0.58802783
-0.057793684 -0.03128282 0.58775085
-0.056717165 -0.03127395 0.5875842
-0.055650786 -0.031270441 0.58751827
-0.054591425 -0.031270817 0.58752531
-0.053538434 -0.031274926 0.58760256
-0.052494548 -0.03128463 0.58778483
-0.051456023 -0.031297993 0.58803594
-0.050424699 -0.031316392 0.58838159
-0.049400374 -0.031340022 0.58882558
-0.04838457 -0.031370215 0.58939284
-0.04737797 -0.03140787 0.59010029
-0.046383806 -0.031455684 0.59099865
-0.045408249 -0.031518664 0.59218198
-0.04447715 -0.031616289 0.59401613
-0.0335427 -0.031413004 0.59019679
-0.032483928 -0.031418879 0.59030718
-0.031430021 -0.031430021 0.59051651
-0.030379744 -0.031445701 0.59081107
-0.029332506 -0.03146578 0.59118831
-0.028288625 -0.031491112 0.59166425
-0.027249545 -0.031523984 0.59228188
-0.026216121 -0.031566352 0.5930779
-0.025190234 -0.031621784 0.59411937
-0.024183236 -0.031706907 0.59571874
-0.016721686 -0.031825144 0.59794021
-0.015560051 -0.031656656 0.5947746
-0.014411311 -0.031491384 0.59166938
-0.013245888 -0.031260297 0.58732766
-0.012143203 -0.031149955 0.58525455
-0.011035973 -0.03100583 0.58254665
-0.0099340659 -0.03084789 0.57957923
-0.0088433912 -0.030691771 0.57664603
-0.0077637006 -0.030537222 0.57374233
-0.0067230365 -0.030512244 0.573273
-0.0056924783 -0.030532384 0.57365143
-0.0016169364 -0.031799749 0.59746307
-0.00053631526 -0.031642601 0.5945105
0.00053400022 -0.031506013 0.59194428
0.0015932126 -0.031333178 0.58869702
0.0026424024 -0.031180348 0.58582556
0.0036813368 -0.03102841 0.58297092
0.0047101961 -0.030877952 0.58014405
0.0057341191 -0.03075573 0.57784772
0.0067811986 -0.030776208 0.57823247
0.0078296727 -0.030796712 0.57861769
0.0090518063 -0.031415094 0.59023601
0.010118399 -0.03142029 0.5903337
0.011186658 -0.031429183 0.59050077
0.012257022 -0.031441923 0.59074014
0.013330447 -0.031459857 0.59107703
0.014408177 -0.031484533 0.59154069
0.015490897 -0.031515963 0.5921312
0.01658058 -0.031556588 0.59289443
0.017680772 -0.031611077 0.5939182
0.018801752 -0.031694382 0.59548342
0.020947007 -0.031689063 0.59538347
0.02192983 -0.03155756 0.59291273
0.023020912 -0.031586833 0.59346271
0.024115976 -0.031618726 0.59406191
0.025219142 -0.031658072 0.59480119
0.026334951 -0.031709433 0.59576613
0.027472949 -0.031782433 0.59713769
0.028628057 -0.031868968 0.59876359
0.029572012 -0.031722706 0.59601551
0.03057461 -0.031647403 0.59460074
0.031594712 -0.031594712 0.59361076
0.032624613 -0.031554956 0.5928638
0.033662025 -0.031524755 0.59229636
0.034705706 -0.031502102 0.59187078
0.035755832 -0.031486478 0.59157723
0.036812086 -0.031477001 0.59139919
0.037874289 -0.031473003 0.59132403
0.038943101 -0.03147456 0.5913533
0.040018991 -0.031481605 0.59148568
0.041103441 -0.031494845 0.59173441
0.04219937 -0.031515986 0.59213161
0.04330847 -0.031545676 0.59268945
0.056168392 -0.031561289 0.59298277
0.057027105 -0.031444851 0.59079516
0.057970438 -0.031378496 0.58954841
0.058941614 -0.031329326 0.5886246
0.059930827 -0.031291317 0.58791047
0.060933016 -0.031261288 0.58734626
0.061945733 -0.031237591 0.58690107
0.062970698 -0.031220764 0.58658493
0.064003505 -0.03120832 0.5863511
0.065043867 -0.031199902 0.58619297
0.066093035 -0.031195913 0.58611798
0.06715364 -0.031197362 0.58614522
0.068222858 -0.0312027 0.58624554
0.069301702 -0.031212218 0.58642435
0.070393831 -0.031227337 0.58670843
0.071500987 -0.031248581 0.58710754
0.07262703 -0.031277336 0.5876478
0.073777221 -0.031315513 0.58836508
0.074963346 -0.031367641 0.5893445
0.076221533 -0.031448044 0.59085512
-0.065794758 -0.030490255 0.59296024
-0.064504579 -0.030386455 0.59094161
-0.063320801 -0.030330133 0.58984625
-0.062174816 -0.030290294 0.58907151
-0.061053105 -0.030261105 0.58850384
-0.059948403 -0.030239461 0.58808291
-0.058857512 -0.030224128 0.58778471
-0.057779755 -0.030215101 0.58760917
-0.056710552 -0.030210296 0.58751571
-0.055648725 -0.030209308 0.58749652
-0.054595109 -0.030212827 0.58756495
-0.053550042 -0.03022131 0.58772993
-0.052509557 -0.030232776 0.58795291
-0.05147722 -0.030249501 0.58827817
-0.05045221 -0.030271327 0.58870262
-0.049435169 -0.030298974 0.58924031
-0.04842715 -0.030333489 0.58991152
-0.047430966 -0.030377137 0.59076035
-0.046451915 -0.030434014 0.59186649
-0.045507535 -0.030516818 0.59347683
-0.034608677 -0.030349147 0.59021604
-0.033543069 -0.030348491 0.59020329
-0.03248167 -0.030351724 0.59026617
-0.031423368 -0.030358167 0.59039146
-0.030368937 -0.030368937 0.59060091
-0.029318765 -0.030384902 0.59091139
-0.028271515 -0.030405214 0.59130639
-0.027227513 -0.030430749 0.59180301
-0.026187636 -0.030463167 0.59243345
-0.025153425 -0.030505218 0.59325123
-0.024128275 -0.030562483 0.59436488
-0.023120964 -0.03064872 0.59604198
-0.016749999 -0.030798385 0.59895259
-0.015586621 -0.030635772 0.59579021
-0.014436018 -0.030476037 0.59268373
-0.013239909 -0.030186992 0.58706254
-0.012140967 -0.030088484 0.58514678
-0.011055052 -0.030006571 0.58355379
-0.0099510755 -0.029853225 0.58057159
-0.0088585252 -0.029702114 0.57763284
-0.0077770143 -0.029552655 0.57472622
-0.0067236 -0.0294804 0.57332104
-0.0056929542 -0.029499853 0.57369936
-0.0046609468 -0.029519331 0.57407814
-0.0027023552 -0.030806849 0.59911722
-0.0016134379 -0.030655321 0.59617037
-0.00053578062 -0.030539496 0.59391785
0.00053366134 -0.030418696 0.59156859
0.0015897026 -0.03020435 0.58740008
0.0026365053 -0.030056162 0.58451819
0.0036730871 -0.029909424 0.5816645
0.0046995957 -0.029764108 0.57883847
0.0057346029 -0.02971567 0.57789648
0.0067817695 -0.029735452 0.57828116
0.007988506 -0.030356321 0.59035558
0.0090527851 -0.030353457 0.59029984
0.010117922 -0.030353766 0.59030586
0.011184817 -0.030358789 0.59040356
0.012253829 -0.030368187 0.5905863
0.013325164 -0.030381374 0.59084278
0.014399503 -0.030398952 0.59118462
0.015478647 -0.030423548 0.59166294
0.016563294 -0.030455092 0.59227639
0.017655479 -0.030495826 0.5930686
0.01875909 -0.030550519 0.59413224
0.019888617 -0.030639222 0.59585726
0.021969967 -0.030543612 0.5939979
0.023069954 -0.030581102 0.59472698
0.024182009 -0.030630544 0.59568852
0.025314335 -0.030700363 0.59704632
0.029625621 -0.030702915 0.59709597
0.030609841 -0.030609841 0.59528589
0.031621795 -0.030549871 0.59411961
0.032646403 -0.030505655 0.59325975
0.033679862 -0.030472254 0.59261018
0.034720432 -0.030447148 0.5921219
0.035767082 -0.030428711 0.59176338
0.036819499 -0.030416109 0.59151828
0.037877746 -0.030408895 0.59137797
0.038943268 -0.030407757 0.59135586
0.04001651 -0.030412547 0.59144902
0.041097615 -0.030422909 0.59165055
0.055205569 -0.030550655 0.59413487
0.055999592 -0.030399779 0.59120071
0.056929912 -0.030327151 0.58978826
0.057897851 -0.030276859 0.58881021
0.058884427 -0.03023795 0.58805352
0.059884582 -0.030207267 0.58745682
0.060898017 -0.030184234 0.58700889
0.061920524 -0.030166408 0.58666223
0.062950902 -0.030152954 0.58640057
0.06398873 -0.030143449 0.58621573
0.065038063 -0.030139592 0.58614069
0.066095695 -0.030139636 0.58614159
0.067161605 -0.030143397 0.58621472
0.068237573 -0.030151486 0.58637202
0.069328174 -0.030165695 0.58664834
0.070430353 -0.030184437 0.58701283
0.071550459 -0.030210193 0.58751374
0.07269308 -0.030244567 0.58818221
0.07386893 -0.030291576 0.58909643
0.075100444 -0.030359754 0.59042233
-0.066986635 -0.029474119 0.59404248
-0.065610051 -0.029337829 0.5912956
-0.064405173 -0.029275078 0.59003091
-0.063251726 -0.02923399 0.58920276
-0.062124357 -0.029203756 0.58859342
-0.061015815 -0.029181477 0.58814436
-0.059923615 -0.029166361 0.58783972
-0.058842435 -0.029156161 0.58763415
-0.057770308 -0.029150154 0.58751309
-0.056705929 -0.029147906 0.58746779
-0.055652473 -0.029151296 0.5875361
-0.054605342 -0.029158194 0.58767509
-0.053563543 -0.029168265 0.58787811
-0.052529994 -0.02918333 0.58818173
-0.051504016 -0.029203307 0.58858436
-0.050485604 -0.029228507 0.58909225
-0.049476214 -0.029260127 0.58972955
-0.048478134 -0.029299971 0.5905326
-0.047495589 -0.029351208 0.59156525
-0.046542548 -0.029423449 0.59302127
-0.045728855 -0.02958926 0.59636313
-0.035692513 -0.029299824 0.59052962
-0.034617491 -0.029291723 0.59036636
-0.03354691 -0.029286986 0.59027088
-0.032481097 -0.029286234 0.59025574
-0.031420391 -0.029290194 0.59033555
-0.030362504 -0.029297153 0.5904758
-0.029307548 -0.029307548 0.59068531
-0.028257428 -0.029323746 0.59101176
-0.027210098 -0.029344222 0.59142447
-0.026165906 -0.029369894 0.59194189
-0.025125742 -0.029402465 0.59259832
-0.02409111 -0.029444689 0.59344935
-0.023065487 -0.029502368 0.59461182
-0.022058686 -0.029590921 0.59639663
-0.015626557 -0.029636575 0.59731674
-0.0144729 -0.029481834 0.59419799
-0.013234211 -0.029115263 0.58680987
-0.012138731 -0.029027401 0.58503902
-0.011061833 -0.028971469 0.58391172
-0.0099764178 -0.028879104 0.58205014
-0.0088808686 -0.028732222 0.57908976
-0.0077966442 -0.028587695 0.57617688
-0.006724162 -0.028448377 0.57336897
-0.0056934315 -0.028467156 0.57374746
-0.0046613379 -0.028485954 0.5741263
-0.0037883748 -0.029765802 0.59992129
-0.0026925176 -0.029617695 0.59693623
-0.0016101387 -0.02951921 0.59495127
-0.00053567567 -0.029462161 0.5938015
0.00053056976 -0.029181337 0.58814156
0.0015839108 -0.029038364 0.58525997
0.0026269807 -0.028896786 0.58240652
0.0036598728 -0.028756144 0.5795719
0.0046892264 -0.028656382 0.57756126
0.0057350909 -0.028675456 0.57794565
0.0067823427 -0.028694527 0.57833004
0.0079907114 -0.029299276 0.59051859
0.0090541942 -0.02929298 0.5903917
0.010118757 -0.02929114 0.59035462
0.01118429 -0.029292187 0.59037572
0.012251489 -0.029297037 0.59047347
0.01332131 -0.029306883 0.5906719
0.014393679 -0.029320456 0.59094548
0.015469327 -0.029338378 0.59130669
0.016549559 -0.02936212 0.59178519
0.017636219 -0.029393699 0.59242165
0.018731011 -0.029434444 0.59324288
0.019838786 -0.029490087 0.59436435
0.020976841 -0.029582724 0.5962314
0.022029627 -0.029551938 0.59561092
0.023156377 -0.029618621 0.59695488
0.029712675 -0.029712675 0.59885055
0.030652391 -0.029576868 0.59611338
0.031651825 -0.029505938 0.59468383
0.032670282 -0.029456811 0.59369367
0.033699121 -0.029419869 0.59294909
0.034735534 -0.029391605 0.59237945
0.035778575 -0.029370472 0.59195352
0.036828544 -0.029356087 0.5916636
0.037884608 -0.029347233 0.59148514
0.038946819 -0.029343495 0.5914098
0.054973111 -0.029354572 0.59163308
0.055893399 -0.029277496 0.59007961
0.056854717 -0.029224386 0.58900923
0.057839174 -0.029184904 0.58821344
0.058838967 -0.029154442 0.58759952
0.059849918 -0.02913049 0.58711678
0.060870066 -0.029111771 0.58673948
0.061898127 -0.02909741 0.58645004
0.06293571 -0.029087935 0.58625907
0.063983016 -0.029083189 0.5861634
0.065037772 -0.029081931 0.58613807
0.066100471 -0.029084209 0.58618397
0.067176111 -0.029092016 0.58634132
0.068262741 -0.029104268 0.58658826
0.069360062 -0.029120637 0.58691818
0.070475206 -0.029143883 0.58738667
0.071611002 -0.029174851 0.58801085
0.072776489 -0.029216841 0.58885711
0.073990934 -0.029276988 0.59006935
0.075343616 -0.029389353 0.59233409
-0.066718683 -0.028288722 0.59166628
-0.065496318 -0.028221989 0.59027058
-0.064330943 -0.028178018 0.58935088
-0.063198119 -0.028147062 0.58870345
-0.062086388 -0.028124603 0.58823371
-0.060989924 -0.028108399 0.5878948
-0.059905205 -0.02809713 0.58765912
-0.05883006 -0.02809003 0.58751059
-0.057765517 -0.028087821 0.58746439
-0.056709737 -0.02808987 0.58750725
-0.055660445 -0.028095273 0.58762026
-0.054617256 -0.028104024 0.5878033
-0.053583108 -0.028117869 0.58809286
-0.052555542 -0.028135795 0.58846778
-0.051536284 -0.028159 0.58895314
-0.050525595 -0.028187964 0.5895589
-0.049525339 -0.028224118 0.5903151
-0.048540361 -0.028270759 0.59129059
-0.047552112 -0.02831755 0.59226924
-0.046565913 -0.028367741 0.593319
-0.045597993 -0.028431691 0.59465653
-0.044672869 -0.028526047 0.59663004
-0.036796447 -0.028263936 0.5911479
-0.035708643 -0.028247137 0.59079653
-0.034628432 -0.02823549 0.59055293
-0.033554606 -0.028228479 0.5904063
-0.032484949 -0.028224627 0.59032571
-0.031419117 -0.028223954 0.59031165
-0.030358862 -0.028228417 0.59040499
-0.02930134 -0.028235838 0.5905602
-0.028246481 -0.028246481 0.59078282
-0.027195729 -0.02826223 0.5911122
-0.026148256 -0.028282808 0.5915426
-0.025103802 -0.028308542 0.59208083
-0.024063254 -0.028341167 0.59276319
-0.023028089 -0.028383458 0.59364772
-0.022001827 -0.028441386 0.5948593
-0.020999691 -0.028538041 0.59688085
-0.015684197 -0.028664222 0.59951997
-0.014524801 -0.028511645 0.59632879
-0.013229857 -0.028047297 0.58661681
-0.012136199 -0.027966022 0.58491695
-0.011060527 -0.027914664 0.58384275
-0.0099940347 -0.027878096 0.58307797
-0.0089120371 -0.027784586 0.58112216
-0.0078239143 -0.027644498 0.57819217
-0.0067467783 -0.027506096 0.57529747
-0.0056939065 -0.027434276 0.57379532
-0.0046617277 -0.027452398 0.57417434
-0.0036281876 -0.027470563 0.57455426
-0.0026865895 -0.028477849 0.59562194
-0.0016099628 -0.028442677 0.5948863
-0.000535561 -0.028384734 0.59367442
0.000527361 -0.027950132 0.58458459
0.0015742575 -0.027811881 0.58169305
0.0026108478 -0.027674988 0.57882988
0.0036450585 -0.027598299 0.57722592
0.0046896208 -0.027616655 0.57760984
0.0057355748 -0.027635042 0.57799441
0.0069313641 -0.028258638 0.59103709
0.007993998 -0.028245458 0.59076142
0.0090567498 -0.028235748 0.59055835
0.010120081 -0.028229699 0.59043181
0.011184915 -0.028228596 0.59040874
0.012250911 -0.02823036 0.59044564
0.013318455 -0.028235124 0.5905453
0.0143891 -0.02824527 0.59075749
0.015462565 -0.028259171 0.59104824
0.016539589 -0.028277362 0.5914287
0.017621325 -0.028300915 0.59192133
0.018709669 -0.028331785 0.59256697
0.019807175 -0.02837244 0.59341729
0.020920727 -0.028430734 0.5946365
0.022070453 -0.028530098 0.59671474
0.030708138 -0.02855318 0.59719753
0.031688787 -0.028466199 0.59537828
0.032698687 -0.028410334 0.59420985
0.033721805 -0.028369138 0.59334821
0.034754209 -0.028338049 0.59269798
0.035794005 -0.028314659 0.5922088
0.036840141 -0.028297499 0.59184986
0.053950761 -0.028310796 0.59212798
0.054858021 -0.028227914 0.5903945
0.055814769 -0.028173169 0.58924949
0.056795813 -0.028132506 0.58839899
0.057792835 -0.028101103 0.58774221
0.058801435 -0.028076362 0.58722472
0.059819318 -0.028056849 0.58681661
0.060845722 -0.028041942 0.58650482
0.061883181 -0.028032551 0.58630842
0.062927879 -0.028026704 0.58618611
0.063979849 -0.028024232 0.58613443
0.065041736 -0.028026113 0.58617377
0.066114753 -0.028032655 0.58631057
0.067197554 -0.028043073 0.58652848
0.068291225 -0.028057635 0.58683306
0.069401212 -0.028078353 0.58726639
0.070531353 -0.028106479 0.58785462
0.071687497 -0.02814398 0.58863896
0.072886236 -0.028196866 0.5897451
0.07417877 -0.028283991 0.59156734
-0.067835338 -0.027240964 0.59209538
-0.066590428 -0.027168894 0.59052891
-0.065414727 -0.027123181 0.5895353
-0.064274535 -0.02709092 0.58883411
-0.063157313 -0.027067419 0.5883233
-0.062056422 -0.027050236 0.58794981
-0.060968056 -0.027038008 0.58768404
-0.059890766 -0.027030347 0.5875175
-0.05882518 -0.027027786 0.58746183
-0.057766914 -0.027028555 0.58747858
-0.056715351 -0.02703255 0.58756542
-0.055672511 -0.027040934 0.58774763
-0.054635916 -0.027052734 0.58800411
-0.053607468 -0.027069116 0.58836019
-0.052580338 -0.027086839 0.58874542
-0.051556647 -0.027107103 0.58918583
-0.050536823 -0.027130295 0.58968991
-0.049520411 -0.027156353 0.59025633
-0.048508741 -0.027186217 0.59090543
-0.047501333 -0.027219865 0.59163678
-0.046500094 -0.027258676 0.59248036
-0.045507532 -0.027304519 0.59347677
-0.044528779 -0.027361056 0.59470564
-0.043582942 -0.027441112 0.59644568
-0.039046481 -0.027279049 0.59292316
-0.037928086 -0.027244117 0.59216392
-0.036824126 -0.027217833 0.59159261
-0.035730317 -0.027197704 0.59115511
-0.034644157 -0.027182337 0.59082109
-0.033564292 -0.027171094 0.59057671
-0.032491583 -0.027165093 0.59044629
-0.031422786 -0.027162069 0.59038055
-0.030357441 -0.02716192 0.59037733
-0.029297085 -0.027166387 0.59047443
-0.02823987 -0.027174214 0.59064454
-0.027185192 -0.027185192 0.59088314
-0.026133673 -0.027200354 0.59121269
-0.025085995 -0.027220972 0.59166086
-0.0240412 -0.027246693 0.59221989
-0.023000168 -0.027279269 0.59292793
-0.021964356 -0.027321516 0.5938462
-0.020937279 -0.027379517 0.5951069
-0.019939041 -0.027483543 0.59736794
-0.014598741 -0.027575402 0.59936452
-0.013226008 -0.026981058 0.58644617
-0.012134127 -0.026906108 0.58481711
-0.011059242 -0.026858158 0.58377492
-0.0099933445 -0.02682424 0.58303767
-0.0089332974 -0.026799891 0.58250844
-0.0078615882 -0.026729401 0.58097631
-0.0067791315 -0.026595054 0.57805622
-0.0057075014 -0.02646205 0.57516533
-0.0046621189 -0.026418673 0.57422251
-0.0036284898 -0.026436139 0.57460213
-0.0025934924 -0.026453622 0.57498211
-0.0015571257 -0.026471136 0.5753628
-0.00051938562 -0.026488667 0.57574385
0.00051973038 -0.026506249 0.57612598
0.0015602258 -0.02652384 0.57650834
0.0026021018 -0.026541438 0.57689083
0.0036453658 -0.026559094 0.57727462
0.004690018 -0.026576769 0.57765877
0.0057360586 -0.026594454 0.57804316
0.0069357483 -0.027209474 0.59141093
0.0079977727 -0.027192425 0.59104037
0.0090602152 -0.027180646 0.59078431
0.010122931 -0.027172077 0.59059811
0.011186209 -0.027166506 0.59047699
0.012251129 -0.027165549 0.59045619
0.013317784 -0.02716828 0.59051555
0.014386015 -0.027173584 0.59063083
0.0154572 -0.027183352 0.59084314
0.016531823 -0.027197516 0.591151
0.017610293 -0.027215907 0.59155077
0.018693864 -0.027239632 0.59206641
0.019784419 -0.027270416 0.59273553
0.020885328 -0.027311582 0.59363031
0.022003671 -0.027370421 0.59490919
0.02317095 -0.027481824 0.59733057
0.030797612 -0.027555758 0.59893757
0.031733122 -0.027430326 0.59621125
0.032729343 -0.027363876 0.59476691
0.033746459 -0.027318561 0.59378201
0.034774091 -0.027284287 0.59303701
0.052940883 -0.027272576 0.5927825
0.053821567 -0.027177228 0.59071004
0.054773912 -0.027121063 0.58948928
0.055751789 -0.027079441 0.5885846
0.056746215 -0.02704726 0.58788514
0.057752583 -0.027021851 0.58733284
0.058768295 -0.027001649 0.58689374
0.059795417 -0.026987312 0.58658212
0.060830481 -0.026976995 0.58635789
0.061872672 -0.026970139 0.58620888
0.062922277 -0.026966689 0.5861339
0.063983753 -0.02696836 0.5861702
0.065053493 -0.0269734 0.58627975
0.066132575 -0.026982091 0.58646864
0.067223214 -0.026995149 0.58675247
0.068329833 -0.02701412 0.58716482
0.069453932 -0.027039316 0.58771247
0.070602208 -0.027073028 0.58844519
0.071787067 -0.027119558 0.58945656
0.07304436 -0.027191697 0.59102452
0.074390344 -0.027294299 0.59325463
0.075795166 -0.027415274 0.59588408
-0.068971895 -0.026198627 0.59268212
-0.06768544 -0.026114855 0.59078699
-0.066499196 -0.026067683 0.58971983
-0.065351471 -0.026034325 0.58896518
-0.06422855 -0.02600991 0.58841282
-0.063123122 -0.025991874 0.58800483
-0.062031016 -0.0259788 0.58770907
-0.060953371 -0.025971437 0.58754247
-0.059884831 -0.025967758 0.58745927
-0.05882398 -0.025967343 0.58744985
-0.057770811 -0.025970364 0.58751822
-0.056727648 -0.025978081 0.5876928
-0.055689171 -0.025988281 0.58792353
-0.0546511 -0.025999067 0.58816755
-0.053612836 -0.026010189 0.58841914
-0.052580182 -0.026024535 0.58874369
-0.051550068 -0.026040757 0.58911067
-0.050524186 -0.026059842 0.58954245
-0.049500398 -0.026080854 0.5900178
-0.048480414 -0.026104838 0.59056038
-0.04746611 -0.026133027 0.59119809
-0.04645383 -0.026163651 0.59189087
-0.045447841 -0.026199345 0.59269834
-0.044450115 -0.026241634 0.59365505
-0.0434632 -0.026292553 0.59480697
-0.04249654 -0.026358614 0.59630144
-0.041654613 -0.026507482 0.59966922
-0.040282413 -0.026317844 0.59537911
-0.039108083 -0.026250632 0.5938586
-0.037972074 -0.026206078 0.59285069
-0.036857005 -0.026173815 0.59212083
-0.035755854 -0.026149804 0.59157759
-0.034664165 -0.026131447 0.59116232
-0.033579573 -0.026117446 0.59084558
-0.032500658 -0.026107086 0.59061122
-0.031428028 -0.026101243 0.59047902
-0.030360429 -0.026099317 0.59043545
-0.029295713 -0.026099816 0.59044677
-0.028235056 -0.026104109 0.59054387
-0.027178098 -0.02611229 0.59072894
-0.026123542 -0.026123542 0.59098351
-0.025071397 -0.026138265 0.59131658
-0.024023306 -0.026158711 0.59177911
-0.022978095 -0.026184341 0.59235895
-0.021936489 -0.026216781 0.5930928
-0.020899912 -0.026258865 0.59404486
-0.019871846 -0.026316769 0.5953548
-0.018886024 -0.026440432 0.5981524
-0.013222457 -0.025916016 0.58628869
-0.012132123 -0.025846697 0.58472055
-0.011058228 -0.025802532 0.5837214
-0.0099927401 -0.025770752 0.58300245
-0.0089330198 -0.025748117 0.58249038
-0.0078773834 -0.025732785 0.58214355
-0.0068246811 -0.025723798 0.58194023
-0.0057463273 -0.025597276 0.57907796
-0.0046777069 -0.025467515 0.57614243
-0.0036287934 -0.025401555 0.57465023
-0.0025937092 -0.02541835 0.57503021
-0.0015572555 -0.025435174 0.57541078
-0.00051942957 -0.025452049 0.57579255
0.00051977427 -0.02546894 0.57617468
0.0015603582 -0.025485849 0.57655722
0.0026023209 -0.025502743 0.5769394
0.003645672 -0.025519704 0.57732308
0.0048165689 -0.02622354 0.59324574
0.0058793239 -0.026189717 0.59248054
0.0069413302 -0.026163474 0.59188688
0.0080028791 -0.026142739 0.59141779
0.0090643195 -0.026126567 0.59105194
0.010126387 -0.026115419 0.59079975
0.011189256 -0.026108263 0.59063786
0.0122527 -0.026103577 0.59053183
0.013317687 -0.026102666 0.5905112
0.01438491 -0.026105948 0.59058547
0.015453883 -0.026111733 0.59071636
0.016525609 -0.026121125 0.59092879
0.017601451 -0.026135487 0.59125376
0.018681442 -0.026154019 0.59167296
0.019766932 -0.026177829 0.5922116
0.020859975 -0.026208686 0.59290969
0.021964272 -0.026249984 0.59384394
0.023087637 -0.026309168 0.59518284
0.024297388 -0.026457155 0.59853071
0.031791028 -0.026402716 0.59729916
0.032768067 -0.02632189 0.59547067
0.051955327 -0.026245475 0.59374195
0.052788522 -0.026127653 0.59107649
0.053732183 -0.02606809 0.58972901
0.054707091 -0.026025705 0.58877015
0.055699088 -0.025992908 0.58802819
0.056703333 -0.025966948 0.58744091
0.057719398 -0.025947252 0.58699536
0.058744833 -0.025932403 0.58665943
0.059777603 -0.025921261 0.58640736
0.060817376 -0.025913492 0.58623159
0.061867151 -0.025910174 0.58615655
0.062925786 -0.02591062 0.58616662
0.063992351 -0.025914257 0.58624893
0.065067828 -0.02592133 0.58640891
0.06615781 -0.025933864 0.58669245
0.067258835 -0.025950259 0.58706337
0.068377338 -0.025972789 0.58757305
0.069518402 -0.026003066 0.58825803
0.070688061 -0.02604297 0.58916074
0.071853854 -0.026080288 0.59000498
0.073038571 -0.026123283 0.59097767
0.074251376 -0.026174946 0.5921464
0.075510986 -0.026241407 0.59364992
0.076869473 -0.026339889 0.59587783
-0.070144452 -0.025166331 0.59355563
-0.068787552 -0.025062131 0.59109801
-0.067584336 -0.025011526 0.58990449
-0.066428892 -0.024977265 0.58909643
-0.065300122 -0.024952078 0.58850241
-0.064190015 -0.024933312 0.58805978
-0.06309703 -0.024920676 0.58776176
-0.062016059 -0.024912434 0.58756739
-0.060944468 -0.024907738 0.58745664
-0.059880935 -0.024906229 0.58742106
-0.058827937 -0.024909126 0.58748937
-0.057782587 -0.024915427 0.58763796
-0.056742687 -0.024924358 0.5878486
-0.055711411 -0.024937488 0.58815831
-0.054669287 -0.024946179 0.58836329
-0.053627577 -0.024955407 0.58858091
-0.05258714 -0.024965612 0.58882159
-0.051551562 -0.024978591 0.58912772
-0.050518513 -0.024993371 0.58947629
-0.049490441 -0.025011297 0.58989912
-0.048463508 -0.025030604 0.59035444
-0.047441367 -0.025053306 0.59088987
-0.046422448 -0.025078794 0.59149104
-0.045406409 -0.025107075 0.59215802
-0.044396874 -0.025140397 0.59294397
-0.04339404 -0.025179258 0.59386051
-0.042399868 -0.025225237 0.59494495
-0.041422229 -0.0252837 0.59632379
-0.040494036 -0.025376262 0.59850693
-0.039196119 -0.025235858 0.59519541
-0.038029172 -0.02517424 0.59374213
-0.036899421 -0.025134388 0.59280223
-0.035787042 -0.025104342 0.59209359
-0.034687527 -0.025081748 0.59156072
-0.033597685 -0.02506494 0.59116429
-0.0325149 -0.025052464 0.59087002
-0.031437196 -0.02504319 0.59065127
-0.030364802 -0.025037644 0.5905205
-0.029297674 -0.025036193 0.59048629
-0.028233735 -0.025037462 0.59051621
-0.027172778 -0.025041578 0.59061331
-0.026116023 -0.025050063 0.5908134
-0.025061531 -0.025061531 0.59108388
-0.024009328 -0.025076408 0.59143478
-0.022960193 -0.025096025 0.59189743
-0.021914497 -0.025121497 0.59249818
-0.02087222 -0.0251537 0.59325773
-0.019834757 -0.025195504 0.59424365
-0.018807411 -0.025255665 0.59566259
-0.014375781 -0.025024507 0.59021068
-0.013218531 -0.02485084 0.58611465
-0.012130365 -0.024788138 0.58463579
-0.011057213 -0.024747096 0.58366781
-0.0099921217 -0.024717353 0.58296633
-0.0089327442 -0.02469641 0.58247238
-0.0078773322 -0.024682308 0.58213979
-0.0068247966 -0.024674265 0.58195007
-0.0057742447 -0.024671772 0.5818913
-0.0047250069 -0.024675034 0.58196825
-0.0036645196 -0.024604632 0.58030778
-0.002604051 -0.02447808 0.57732302
-0.0015573869 -0.024399063 0.57545936
-0.0005194734 -0.024415249 0.57584113
0.00051981787 -0.024431441 0.57622302
0.0015604889 -0.024447661 0.57660556
0.0026601378 -0.025005296 0.58975756
0.0037609588 -0.025252152 0.59557974
0.0048239538 -0.02519176 0.59415537
0.0058861119 -0.025149751 0.59316456
0.0069477363 -0.02511874 0.59243315
0.0080089858 -0.025094822 0.59186906
0.0090700341 -0.025075976 0.59142458
0.010131068 -0.025061062 0.5910728
0.011192805 -0.025050564 0.5908252
0.012255586 -0.025044022 0.59067094
0.013319388 -0.02504045 0.59058666
0.014384529 -0.025039734 0.59056979
0.015452288 -0.025043363 0.59065539
0.016522063 -0.02504958 0.59080201
0.017594468 -0.025058787 0.59101915
0.018671453 -0.025073092 0.59135658
0.019753035 -0.025091693 0.59179527
0.020840526 -0.025115505 0.59235686
0.021936165 -0.025146337 0.59308404
0.023043994 -0.025187621 0.59405774
0.024172598 -0.025246937 0.59545672
0.051759932 -0.025079556 0.59150898
0.052691899 -0.025015347 0.58999461
0.053661738 -0.024971303 0.58895582
0.054651659 -0.024938136 0.58817357
0.055656072 -0.024912717 0.58757406
0.056670748 -0.024892759 0.58710331
0.057693951 -0.024877207 0.58673656
0.058724537 -0.024865346 0.58645678
0.059763171 -0.024857247 0.5862658
0.060811955 -0.024853582 0.58617932
0.061867837 -0.024852891 0.58616304
0.062931322 -0.024855228 0.58621818
0.06400618 -0.024861904 0.58637559
0.065092646 -0.0248728 0.58663261
0.066189103 -0.024887102 0.58696991
0.067294016 -0.024904085 0.58737046
0.068408854 -0.024924155 0.58784384
0.069533981 -0.024947308 0.58838987
0.070670173 -0.02497367 0.58901167
0.071819961 -0.025003986 0.58972669
0.072985433 -0.025038799 0.59054774
0.074168786 -0.025078656 0.59148777
0.075379454 -0.025126485 0.59261584
0.076633126 -0.025187111 0.5940457
0.077970289 -0.025273127 0.59607446
-0.069897793 -0.024010692 0.59146839
-0.068673335 -0.023955815 0.59011656
-0.067506798 -0.02391973 0.58922768
-0.066372588 -0.023894133 0.58859712
-0.065260217 -0.023875687 0.58814275
-0.064163491 -0.023862455 0.58781677
-0.063078843 -0.023853345 0.58759236
-0.062004108 -0.023847733 0.58745414
-0.060939416 -0.023845859 0.58740795
-0.059884977 -0.023847999 0.5874607
-0.058837324 -0.02385297 0.58758312
-0.057795931 -0.023860706 0.58777368
-0.056764446 -0.023872897 0.58807403
-0.055739455 -0.023888338 0.58845437
-0.054696687 -0.02389661 0.58865815
-0.053647306 -0.023902265 0.58879745
-0.052602604 -0.023910275 0.58899474
-0.051561017 -0.023920059 0.58923578
-0.050521765 -0.023931362 0.5895142
-0.049487047 -0.023945345 0.58985865
-0.048455454 -0.023961488 0.59025633
-0.047425445 -0.023979157 0.59069157
-0.046401162 -0.0240006 0.59121978
-0.045377754 -0.024023516 0.5917843
-0.044359006 -0.024050063 0.59243822
-0.043345824 -0.024081012 0.59320062
-0.042337235 -0.024116145 0.59406608
-0.041336048 -0.024157429 0.59508306
-0.038109541 -0.024153933 0.59499693
-0.036953241 -0.024099939 0.59366685
-0.035827611 -0.024063319 0.59276479
-0.034718025 -0.024035556 0.59208089
-0.033619776 -0.024014127 0.59155297
-0.032531228 -0.023998447 0.59116673
-0.031449895 -0.023987208 0.59088987
-0.030373583 -0.023979144 0.59069127
-0.029301545 -0.02397399 0.59056431
-0.028234581 -0.023972757 0.59053391
-0.027171506 -0.023974856 0.59058565
-0.026110495 -0.023979027 0.59068835
-0.025053645 -0.023987532 0.59089786
-0.02399916 -0.02399916 0.59118432
-0.022946835 -0.024014128 0.59155303
-0.021896794 -0.024033068 0.59201956
-0.020850396 -0.024058148 0.59263742
-0.019807355 -0.024090027 0.59342271
-0.018768888 -0.024131428 0.59444255
-0.01774241 -0.024194196 0.59598875
-0.014344199 -0.023906998 0.58891404
-0.013214608 -0.023786293 0.58594066
-0.012128784 -0.02373023 0.58455962
-0.011056023 -0.023691477 0.58360499
-0.0099913869 -0.023663811 0.58292347
-0.0089323614 -0.023644485 0.58244741
-0.0078772558 -0.023631766 0.58213413
-0.0068249125 -0.023624698 0.58195996
-0.0057744766 -0.023622857 0.58191466
-0.0047252406 -0.023626203 0.58199704
-0.0036765668 -0.023635073 0.58221555
-0.0026277706 -0.023649937 0.5825817
-0.0015780972 -0.023671459 0.58311188
-0.0005266951 -0.023701278 0.58384645
0.00052762905 -0.023743305 0.58488172
0.0015870606 -0.023805909 0.58642387
0.0037778923 -0.024286451 0.5982613
0.0048341197 -0.024170598 0.59540743
0.0058948584 -0.02411533 0.594046
0.0069556478 -0.024077242 0.59310776
0.0080161626 -0.024048487 0.59239942
0.0090764882 -0.024025999 0.59184545
0.010137099 -0.024008919 0.5914247
0.011197953 -0.023995614 0.59109694
0.01225937 -0.023985723 0.59085333
0.013322012 -0.023979621 0.59070301
0.01438621 -0.023977015 0.59063882
0.015451581 -0.023976592 0.59062839
0.016519919 -0.023980526 0.5907253
0.017590551 -0.023987114 0.59088761
0.018664045 -0.023996629 0.59112197
0.019741826 -0.024010329 0.59145945
0.020825069 -0.024028927 0.59191757
0.021914644 -0.024052659 0.59250218
0.02301299 -0.024083361 0.5932585
0.024124498 -0.024124498 0.59427184
0.025261106 -0.024186166 0.59579092
0.050729919 -0.024029963 0.59194309
0.051654972 -0.023963647 0.5903095
0.052620094 -0.023918224 0.5891906
0.053607367 -0.023884472 0.58835912
0.054609224 -0.0238584 0.58771688
0.055621706 -0.023837874 0.58721125
0.056642789 -0.023821734 0.58681369
0.057671305 -0.023809254 0.58650625
0.058710363 -0.023801498 0.58631521
0.05975667 -0.023796903 0.58620203
0.060809888 -0.023795174 0.58615941
0.061871603 -0.023796771 0.58619875
0.062944919 -0.023802701 0.58634484
0.064027697 -0.023811953 0.58657277
0.065120727 -0.023824656 0.58688569
0.06622082 -0.023839494 0.58725119
0.067320831 -0.023853838 0.58760452
0.068425491 -0.023869358 0.58798683
0.069541819 -0.023888411 0.58845615
0.070666581 -0.023909744 0.58898169
0.071802914 -0.023934305 0.58958668
0.072954401 -0.023963124 0.59029663
0.074119106 -0.023995392 0.59109151
0.075301625 -0.024032433 0.59200394
0.07651034 -0.024076682 0.59309393
0.077757612 -0.024131672 0.59444857
0.079083845 -0.024209341 0.59636182
-0.071009405 -0.022957927 0.59183902
-0.069768518 -0.022901116 0.59037447
-0.068591006 -0.022863669 0.58940911
-0.067449518 -0.02283724 0.58872777
-0.066331454 -0.022818021 0.58823234
-0.065230139 -0.022804033 0.58787173
-0.064141721 -0.022794165 0.58761734
-0.063063733 -0.022787735 0.58745158
-0.06199896 -0.022785943 0.58740538
-0.060941909 -0.022786975 0.58743197
-0.059891868 -0.022790711 0.58752829
-0.058850091 -0.022797784 0.58771062
-0.057817183 -0.022808613 0.58798981
-0.056790434 -0.022822324 0.58834326
-0.055773173 -0.022840442 0.58881032
-0.054733023 -0.022849709 0.58904922
-0.053676292 -0.022852283 0.58911556
-0.052624445 -0.022857081 0.5892393
-0.05157619 -0.022863671 0.58940917
-0.050533455 -0.022873038 0.58965063
-0.049491242 -0.022883046 0.58990866
-0.048454646 -0.022896152 0.5902465
-0.047419209 -0.022910403 0.5906139
-0.046387754 -0.022927281 0.59104896
-0.045359787 -0.022946715 0.59154999
-0.04433272 -0.022967555 0.59208721
-0.043311808 -0.022992687 0.59273511
-0.042293858 -0.023020707 0.59345746
-0.041279692 -0.023052296 0.59427178
-0.038261842 -0.023172665 0.5973748
-0.037025142 -0.02307364 0.59482199
-0.035877995 -0.023026176 0.59359843
-0.034755934 -0.022992387 0.59272736
-0.033649061 -0.022966819 0.59206825
-0.032552745 -0.022947017 0.59155774
-0.031465251 -0.022932302 0.59117842
-0.030384626 -0.022921735 0.59090602
-0.029309718 -0.022914872 0.59072906
-0.028238354 -0.022910362 0.59061283
-0.027171681 -0.022909457 0.59058946
-0.026109029 -0.022912003 0.59065515
-0.02504834 -0.022916567 0.59077275
-0.023990961 -0.022924695 0.59098232
-0.02293643 -0.02293643 0.59128481
-0.021883914 -0.022951424 0.59167135
-0.020833544 -0.022970317 0.59215844
-0.019785792 -0.022994298 0.59277666
-0.018741904 -0.023025766 0.59358788
-0.017703209 -0.023067817 0.59467191
-0.016676197 -0.023131497 0.59631354
-0.014332654 -0.022826079 0.58844006
-0.013211352 -0.022723526 0.5857963
-0.012126955 -0.022672134 0.58447146
-0.01105482 -0.02263606 0.58354151
-0.0099906521 -0.022610424 0.58288062
-0.0089319516 -0.022592584 0.58242071
-0.0078770956 -0.022581009 0.58212233
-0.0068249735 -0.022574911 0.58196515
-0.0057747085 -0.02257386 0.58193803
-0.0047255415 -0.022577588 0.58203411
-0.003676868 -0.022586474 0.58226323
-0.0026280205 -0.022600977 0.58263707
-0.0015782933 -0.022622203 0.5831843
-0.00052678277 -0.022651659 0.58394367
0.00052774255 -0.022692928 0.58500755
0.0015876216 -0.022755912 0.58663118
0.0048516016 -0.023179874 0.59756064
0.0059064967 -0.023089033 0.59521884
0.0069655669 -0.023039952 0.59395355
0.0080249859 -0.02300496 0.59305149
0.0090845404 -0.022978544 0.59237051
0.010144177 -0.022957874 0.59183764
0.011204117 -0.022941763 0.59142232
0.012264811 -0.022929862 0.59111553
0.013326035 -0.02292078 0.59088141
0.0143888 -0.022915496 0.59074515
0.015453097 -0.022913214 0.59068632
0.01651914 -0.022913646 0.59069747
0.017587803 -0.02291744 0.59079528
0.01865935 -0.022924343 0.59097326
0.019733993 -0.022934102 0.59122479
0.020812573 -0.022947196 0.59156239
0.021897549 -0.022965722 0.59203994
0.022989292 -0.022989292 0.59264755
0.024090441 -0.023019755 0.5934329
0.025205784 -0.023060611 0.59448612
0.026352692 -0.023125833 0.5961675
0.04971556 -0.022986764 0.5925824
0.050616957 -0.022910833 0.59062499
0.051578026 -0.022864485 0.58943015
0.052562397 -0.022830132 0.58854455
0.053561874 -0.022803571 0.58785981
0.054572284 -0.022782605 0.58731931
0.055591352 -0.022765983 0.58689082
0.056620169 -0.0227539 0.58657932
0.057657383 -0.022745574 0.58636469
0.058701303 -0.022740144 0.58622473
0.059751961 -0.022737471 0.58615583
0.060813598 -0.022738997 0.58619517
0.06188377 -0.022743609 0.58631402
0.062962972 -0.022751326 0.58651298
0.064052664 -0.022762517 0.58680147
0.06515862 -0.022779029 0.58722717
0.066263437 -0.022794623 0.58762914
0.067353815 -0.022804836 0.58789241
0.068454556 -0.022818185 0.58823657
0.069559351 -0.022832459 0.58860451
0.070677146 -0.022850506 0.58906978
0.071801588 -0.022870136 0.58957583
0.072938591 -0.022893135 0.59016871
0.07409104 -0.022920249 0.5908677
0.075254865 -0.022950066 0.59163636
0.076436982 -0.022984546 0.59252524
0.077644393 -0.02302558 0.59358305
0.078887604 -0.023075964 0.59488195
0.080198489 -0.02314453 0.59664953
-0.072146043 -0.021911019 0.59240419
-0.07086464 -0.021845492 0.5906325
-0.06967622 -0.021807062 0.58959347
-0.068526976 -0.021779893 0.5888589
-0.067403018 -0.02176003 0.58832186
-0.066296995 -0.021745415 0.58792675
-0.06520468 -0.021734893 0.58764225
-0.064126268 -0.021728735 0.58747578
-0.063058496 -0.021726036 0.58740282
-0.061998729 -0.021726049 0.58740318
-0.060946219 -0.021728652 0.58747351
-0.059904858 -0.021735391 0.58765572
-0.058869615 -0.021744633 0.58790559
-0.05784177 -0.021756995 0.58823985
-0.056822538 -0.021773122 0.58867586
-0.055813901 -0.021793999 0.58924031
-0.054778051 -0.021804854 0.58953381
-0.053713903 -0.021804655 0.58952838
-0.052654848 -0.021806553 0.5895797
-0.051600333 -0.02181045 0.58968508
-0.050549887 -0.021816269 0.58984238
-0.049504437 -0.021824537 0.59006596
-0.048459694 -0.021833487 0.59030795
-0.047420893 -0.021845579 0.59063488
-0.046382252 -0.021858303 0.59097886
-0.045349032 -0.02187424 0.59140974
