# .PCD v0.7 - Point Cloud Data file format
VERSION 0.7
FIELDS x y z
SIZE 4 4 4
TYPE F F F
COUNT 1 1 1
WIDTH 1350
HEIGHT 1
VIEWPOINT 0 0 0 1 0 0 0
POINTS 1350
DATA ascii
-0.16113515 -0.099330448 0.708
-0.11287856 -0.1004418 0.70899999
-0.085727409 -0.10141011 0.70900005
0.053831026 -0.10126708 0.708
-0.23311935 -0.097531371 0.70900005
-0.11303777 -0.097668938 0.71000004
-0.08754313 -0.097393811 0.708
0.053983089 -0.097668938 0.71000004
-0.23279054 -0.095457181 0.708
-0.10884608 -0.093520544 0.708
-0.097500943 -0.093784735 0.71000004
-0.0071786409 -0.093586594 0.70850003
-0.0042679431 -0.093520544 0.708
0.053907055 -0.095592 0.70900005
-0.24669492 -0.091713265 0.70900005
-0.012048411 -0.091842629 0.71000004
-0.01007784 -0.091583915 0.708
0.053907055 -0.091713265 0.70900005
-0.012992641 -0.087772593 0.70850003
-0.010106307 -0.089900531 0.71000004
-0.0081527065 -0.089773901 0.70900005
0.0054228664 -0.087834537 0.70900005
0.053907055 -0.087834537 0.70900005
-0.012992641 -0.085834593 0.70850003
0.005415218 -0.085774019 0.708
0.0093147215 -0.084074214 0.71000004
-0.13615097 -0.082016438 0.70900005
-0.11109566 -0.082132109 0.71000004
-0.10332725 -0.082132109 0.71000004
-0.015910177 -0.083955802 0.70900005
-0.012992641 -0.081958592 0.70850003
0.005415218 -0.081900753 0.708
0.0073622339 -0.082016438 0.70900005
0.053869039 -0.082926914 0.70850003
-0.17469159 -0.078027487 0.708
-0.13440089 -0.08019001 0.71000004
-0.13033287 -0.078137703 0.70900005
-0.025570897 -0.078027487 0.708
-0.023667647 -0.080077067 0.70900005
-0.019816823 -0.08019001 0.71000004
-0.01687986 -0.079106018 0.70899999
-0.012014473 -0.078027487 0.708
0.004774773 -0.078746505 0.70866662
0.0073622339 -0.080077067 0.70900005
0.053907055 -0.078137703 0.70900005
-0.18075642 -0.076198332 0.70900005
-0.1283935 -0.076198332 0.70900005
-0.027585234 -0.076305799 0.71000004
-0.019761002 -0.076090857 0.708
-0.017824369 -0.076090857 0.708
0.0044545503 -0.076198325 0.70899999
0.053907055 -0.076198332 0.70900005
-0.23505871 -0.072319597 0.70900005
-0.22698066 -0.072217591 0.708
-0.12451477 -0.074258968 0.70900005
-0.10109956 -0.072217591 0.708
-0.029527336 -0.074363701 0.71000004
-0.025607014 -0.074258968 0.70900005
-0.02269933 -0.074258968 0.70899999
-0.019761002 -0.074154228 0.708
-0.016856052 -0.074154228 0.708
-0.00039467865 -0.074154228 0.708
0.0015441314 -0.073289283 0.70900005
0.053907059 -0.073290646 0.70899999
-0.22536188 -0.070380233 0.70900005
-0.19460608 -0.070479497 0.71000004
-0.04300059 -0.070280962 0.708
-0.031425115 -0.070380233 0.70900005
-0.00039579356 -0.070479497 0.71000004
0.053983089 -0.070479497 0.71000004
-0.045000691 -0.068440862 0.70900005
-0.034335539 -0.068440862 0.70899999
-0.0042679431 -0.066407695 0.708
0.053907055 -0.068440862 0.70900005
-0.0042679431 -0.064471066 0.708
0.053983089 -0.064653188 0.71000004
-0.21954377 -0.062622763 0.70900005
-0.21729749 -0.0605978 0.708
-0.20180443 -0.062534429 0.708
-0.044937219 -0.062534429 0.708
-0.031469442 -0.062711082 0.71000004
-0.029485749 -0.062622763 0.70900005
-0.0062045753 -0.062534429 0.708
-0.0042799995 -0.060768981 0.71000004
0.053983089 -0.060768981 0.71000004
-0.025643131 -0.058826875 0.71000004
-0.0081412075 -0.058661167 0.708
-0.14951536 -0.055756219 0.708
-0.093484879 -0.056804657 0.70900005
-0.073986702 -0.054787904 0.708
-0.043122057 -0.056884773 0.71000004
-0.023634266 -0.056724537 0.708
-0.016892448 -0.05490398 0.70950007
-0.0081412075 -0.056724537 0.708
-0.2117863 -0.052925922 0.70900005
-0.20402883 -0.052925922 0.70900005
-0.15382193 -0.051058464 0.71000004
-0.14951536 -0.052851271 0.708
-0.10915356 -0.051058464 0.71000004
-0.074091204 -0.052925922 0.70900005
-0.0042799995 -0.051058464 0.71000004
-0.0003952361 -0.052925922 0.70900005
-0.20761433 -0.048978008 0.708
-0.15576403 -0.049116362 0.71000004
-0.11659262 -0.048978008 0.708
-0.11287855 -0.050986554 0.70900005
-0.11093919 -0.050986554 0.70900005
-0.10124235 -0.049047187 0.70900005
-0.07215184 -0.049047187 0.70900005
-0.047006264 -0.049116362 0.71000004
-0.015932616 -0.049116362 0.71000004
-0.013951105 -0.048978008 0.708
-0.0023313109 -0.050914638 0.708
-0.24634698 -0.045104742 0.708
-0.20043239 -0.045232154 0.71000004
-0.16341728 -0.046169989 0.70950007
-0.16159034 -0.04717426 0.71000004
-0.1002713 -0.047107816 0.70899999
-0.094453201 -0.045168448 0.70899999
-0.070113435 -0.047041375 0.708
-0.066240169 -0.045104742 0.708
-0.056557011 -0.045104742 0.708
-0.019816823 -0.04717426 0.71000004
-0.017824369 -0.047041375 0.708
-0.24441034 -0.043168109 0.708
-0.091416396 -0.043168109 0.708
-0.089732528 -0.043290056 0.71000004
-0.031469442 -0.043290056 0.71000004
-0.2043166 -0.041347951 0.71000004
-0.19405791 -0.041231479 0.708
-0.18683767 -0.039405849 0.71000004
-0.18489558 -0.039405849 0.71000004
-0.1817261 -0.039350346 0.70900005
-0.17881705 -0.039350346 0.70900005
-0.17578465 -0.039322596 0.70850003
-0.16912022 -0.041289713 0.70900005
-0.16609463 -0.039322596 0.70850003
-0.1207211 -0.040347781 0.70950007
-0.083906218 -0.039405849 0.71000004
-0.041121956 -0.039350346 0.70900005
-0.037295748 -0.041347951 0.71000004
-0.17687769 -0.037410978 0.70900005
-0.15382193 -0.037463747 0.71000004
-0.077969939 -0.037410978 0.70900005
-0.2540935 -0.033484951 0.708
-0.2059682 -0.035471611 0.70900005
-0.17662822 -0.033484951 0.708
-0.15382193 -0.035521645 0.71000004
-0.15187982 -0.03357954 0.71000004
-0.12663248 -0.03357954 0.71000004
-0.12451477 -0.035471611 0.70900005
-0.078079909 -0.035521645 0.71000004
-0.077859968 -0.033484951 0.708
-0.048879426 -0.035471611 0.70900005
0.013161746 -0.033484951 0.708
-0.20790757 -0.031592876 0.70900005
-0.17687769 -0.031592876 0.70900005
-0.15382193 -0.031637438 0.71000004
-0.12645413 -0.031592876 0.70900005
0.013180337 -0.031592876 0.70900005
-0.21208501 -0.027753232 0.71000004
-0.20820081 -0.029695334 0.71000004
-0.18489558 -0.027753232 0.71000004
-0.18295346 -0.027753232 0.71000004
-0.17578328 -0.028662913 0.70850003
-0.15155895 -0.028662913 0.70850003
-0.12627578 -0.029611684 0.708
-0.12451477 -0.027714141 0.70900005
-0.21208501 -0.025811128 0.71000004
-0.14993772 -0.025811128 0.71000004
0.011225114 -0.02573842 0.708
-0.21729749 -0.021865156 0.708
-0.19336231 -0.02189604 0.70900005
-0.17202926 -0.023835406 0.70900005
-0.16888168 -0.023801789 0.708
-0.11869666 -0.023835406 0.70900005
-0.11659262 -0.023801789 0.708
-0.10646342 -0.023199245 0.70933336
-0.097500943 -0.023869026 0.71000004
0.0015441314 -0.02189604 0.70900005
0.0034785857 -0.023801789 0.708
-0.19654819 -0.018042715 0.71000004
-0.1867061 -0.019001061 0.70950007
-0.18489558 -0.018042715 0.71000004
-0.18243811 -0.019928524 0.708
-0.16500843 -0.019928524 0.708
-0.16353244 -0.019984819 0.71000004
-0.16039443 -0.019956671 0.70899999
-0.14865127 -0.018972915 0.70850003
-0.11093919 -0.019956673 0.70900005
-0.10706045 -0.018017303 0.70900005
-0.097363614 -0.018017303 0.70900005
-0.052683748 -0.019928524 0.708
-0.010106307 -0.018042715 0.71000004
-0.0062045753 -0.019928524 0.708
-0.18683767 -0.016100613 0.71000004
-0.18269579 -0.016077936 0.70900005
-0.15919852 -0.017991891 0.708
-0.15748401 -0.016077936 0.70900005
-0.15468466 -0.016089275 0.70950007
-0.15145199 -0.01605526 0.708
-0.14972654 -0.016077936 0.70900005
-0.093353026 -0.01605526 0.708
-0.015910177 -0.016077936 0.70900005
-0.24247371 -0.012181995 0.708
-0.22698066 -0.014118627 0.708
-0.19849029 -0.012216407 0.71000004
-0.18704464 -0.012833275 0.70833331
-0.18463516 -0.014138569 0.70900005
-0.18269578 -0.013167517 0.70899999
-0.14843272 -0.012845657 0.70900005
-0.06642729 -0.012216407 0.71000004
-0.060430277 -0.012181995 0.708
-0.031425115 -0.012199202 0.70900005
-0.019761002 -0.014118627 0.708
-0.24053708 -0.010245362 0.708
-0.23085392 -0.010245362 0.708
-0.18463516 -0.010259833 0.70900005
-0.048879426 -0.010259833 0.70900005
-0.035353646 -0.010274304 0.71000004
-0.18722098 -0.0076749213 0.70900005
-0.18463516 -0.0063810982 0.70900005
-0.18295346 -0.0083322013 0.71000004
-0.070212469 -0.0063810982 0.70900005
-0.068369396 -0.0083322013 0.71000004
-0.058576263 -0.0083204657 0.70900005
-0.056557011 -0.0063720979 0.708
-0.043122057 -0.0083322013 0.71000004
-0.015932616 -0.006390098 0.71000004
-0.1998678 -0.0044354657 0.708
-0.19308959 -0.0044354657 0.708
-0.06642729 -0.0044479952 0.71000004
-0.056557011 -0.0044354657 0.708
-0.20984694 -0.00056299544 0.70900005
-0.2059682 -0.0025023629 0.70900005
-0.19018464 -0.00056220137 0.708
-0.18824801 -0.00056220137 0.708
-0.21372567 0.0013763722 0.70900005
-0.054774676 0.0013783134 0.71000004
-0.0081412075 0.0013744308 0.708
-0.21923412 0.0052476954 0.708
-0.21566504 0.0033157396 0.70900005
-0.13595894 0.0052476954 0.708
-0.070113435 0.0052476954 0.708
-0.067351565 0.0042877616 0.70950007
-0.0547361 0.0042877616 0.70950007
-0.006213339 0.0033157396 0.70900005
-0.0042739715 0.0052551073 0.70900005
-0.22310738 0.0071843276 0.708
-0.066333733 0.0071944753 0.70900005
-0.06430354 0.0071843276 0.708
-0.054697528 0.0071944753 0.70900005
-0.0023346036 0.0071944753 0.70900005
-0.22698066 0.0091209598 0.708
-0.1398322 0.011057592 0.708
-0.066286951 0.010095717 0.70850003
-0.06439437 0.0091338428 0.70900005
-0.062454998 0.0091338428 0.70900005
-0.037295748 0.011088829 0.71000004
0.0034884124 0.011088829 0.71000004
0.040331483 0.0091338428 0.70900005
-0.12821241 0.014930856 0.708
-0.06642729 0.014973034 0.71000004
-0.06439437 0.014951944 0.70900005
-0.062454998 0.013012577 0.70900005
0.0034785857 0.012994224 0.708
-0.14196907 0.016891312 0.70900005
-0.13809034 0.016891312 0.70900005
-0.12821241 0.016867489 0.708
-0.062454998 0.016891312 0.70900005
-0.037295748 0.016915137 0.71000004
0.0073726187 0.016915137 0.71000004
-0.16888168 0.020740753 0.708
-0.13896127 0.018817401 0.70850003
-0.13042478 0.019813644 0.70950007
-0.075923331 0.018804122 0.708
-0.073173776 0.019815011 0.70950007
-0.045000691 0.018830679 0.70900005
-0.044937219 0.020740753 0.708
-0.035254057 0.018804122 0.708
-0.031425115 0.020770047 0.70900005
0.04227085 0.018830679 0.70900005
-0.16935875 0.022741444 0.71000004
-0.1400297 0.022709416 0.70900005
-0.13702327 0.022693401 0.70850003
-0.1342116 0.022709416 0.70900005
-0.099443041 0.022741444 0.71000004
-0.076030575 0.022709416 0.70900005
-0.04300059 0.022677386 0.708
-0.17105958 0.024648784 0.70900005
-0.16888168 0.026550651 0.708
-0.15964824 0.02662565 0.71000004
-0.15187982 0.02662565 0.71000004
-0.14411141 0.02662565 0.71000004
-0.1402272 0.024683548 0.71000004
-0.13702327 0.0246314 0.70850003
-0.10109956 0.024614017 0.708
-0.043061323 0.024648784 0.70900005
-0.041179955 0.02662565 0.71000004
-0.025643131 0.02662565 0.71000004
-0.14176883 0.028487282 0.708
-0.085848324 0.028567754 0.71000004
0.0073726187 0.028567754 0.71000004
-0.2043166 0.032451957 0.71000004
-0.2001501 0.032406256 0.70900005
-0.1060894 0.032406252 0.70899999
-0.10415004 0.031437937 0.70899999
-0.085727409 0.030466886 0.70900005
-0.060515631 0.032406256 0.70900005
-0.039237853 0.032451957 0.71000004
-0.01787472 0.032451957 0.71000004
0.0054228664 0.032406256 0.70900005
-0.20761433 0.034297179 0.708
-0.14778717 0.034345623 0.70900005
-0.097363614 0.034345623 0.70900005
-0.060600985 0.034394063 0.71000004
-0.058493644 0.034297179 0.708
-0.037243217 0.034345623 0.70900005
-0.015932616 0.034394063 0.71000004
0.0034834989 0.034345623 0.70900005
-0.21729749 0.036233813 0.708
-0.1664456 0.038278267 0.71000004
-0.14972654 0.036284991 0.70900005
-0.097226292 0.036233813 0.708
-0.095289662 0.038170442 0.708
-0.081964113 0.038278267 0.71000004
-0.066916905 0.037542868 0.70833331
-0.064485192 0.036336165 0.71000004
-0.056636896 0.037254676 0.70900005
-0.037243217 0.036284991 0.70900005
-0.012014473 0.036233813 0.708
-0.0003952361 0.036284991 0.70900005
-0.19433199 0.040163726 0.70900005
-0.17105958 0.040163726 0.70900005
-0.093353026 0.040107075 0.708
-0.07990931 0.040163726 0.70900005
-0.075923331 0.040107075 0.708
-0.073172405 0.040192049 0.70950007
-0.16056548 0.043354589 0.70833331
-0.15576403 0.042162474 0.71000004
-0.091545515 0.042103093 0.70900005
-0.076030575 0.042103093 0.70900005
-0.074195705 0.042162474 0.71000004
-0.055745728 0.043133527 0.71000004
-0.037243217 0.042103093 0.70900005
-0.17881705 0.045981824 0.70900005
-0.10690945 0.047853604 0.708
-0.094387271 0.046917714 0.70850003
-0.085727409 0.047921192 0.70900005
-0.083788045 0.047921192 0.70900005
-0.074091204 0.047921192 0.70900005
-0.054697528 0.045981824 0.70900005
-0.052683748 0.047853604 0.708
-0.054697528 0.049860559 0.70900005
-0.045064162 0.049930889 0.71000004
-0.18463516 0.053739294 0.70900005
-0.10318172 0.053739294 0.70900005
-0.099443041 0.051872991 0.71000004
-0.093616731 0.053815093 0.71000004
-0.068176806 0.05172687 0.708
-0.052832574 0.051872991 0.71000004
-0.050890468 0.051872991 0.71000004
-0.091416396 0.055600133 0.708
-0.068176806 0.055600133 0.708
-0.091545515 0.058589086 0.70899999
-0.068176806 0.059473399 0.708
-0.18489558 0.061583508 0.71000004
-0.091416396 0.061410028 0.708
-0.06642729 0.061583508 0.71000004
-0.093484879 0.065375499 0.70900005
-0.091416396 0.063346662 0.708
-0.06439437 0.065375499 0.70900005
-0.060430277 0.065283291 0.708
-0.058493644 0.065283291 0.708
-0.055707153 0.065421611 0.70950007
-0.093616731 0.067409813 0.71000004
-0.048948366 0.067409813 0.71000004
-0.17662822 0.069156557 0.708
-0.099302985 0.069254234 0.70900005
-0.097363614 0.069254234 0.70900005
-0.095289662 0.069156557 0.708
-0.17881705 0.075072341 0.70900005
-0.18657452 0.082829811 0.70900005
-0.11481792 0.082829811 0.70900005
-0.12274828 0.088772945 0.71000004
-0.18437475 0.092396148 0.708
-0.12663248 0.090715043 0.71000004
-0.11271935 0.092396148 0.708
-0.046940058 0.092526652 0.70900005
-0.18198241 0.094599247 0.71000004
-0.15145199 0.094332777 0.708
-0.11303777 0.094599247 0.71000004
-0.061483946 0.094466016 0.70899999
-0.058658883 0.094599247 0.71000004
-0.18050148 0.096269406 0.708
-0.17856485 0.096269406 0.708
-0.15435696 0.097237721 0.708
-0.14896667 0.097512409 0.71000004
-0.11109566 0.098483458 0.71000004
-0.099302985 0.098344758 0.70900005
-0.08754313 0.098206043 0.708
-0.085606493 0.098206043 0.708
-0.076998889 0.098344751 0.70899999
-0.067350194 0.096473366 0.70950007
-0.058658883 0.096541353 0.71000004
-0.17493832 0.10028412 0.70900005
-0.15554464 0.10028412 0.70900005
-0.14584781 0.10028412 0.70900005
-0.10915356 0.10042556 0.71000004
-0.10303619 0.10014267 0.708
-0.10027267 0.10028412 0.70900005
-0.097226292 0.10014267 0.708
-0.09432134 0.10014267 0.708
-0.091416396 0.10014267 0.708
-0.08754313 0.10014267 0.708
-0.075923331 0.10014267 0.708
-0.074091204 0.10028412 0.70900005
-0.070113435 0.10014267 0.708
-0.067255273 0.10021339 0.70850003
-0.06430354 0.10014267 0.708
-0.061441269 0.10021339 0.70850003
-0.058576263 0.10028412 0.70900005
-0.055745728 0.10042556 0.71000004
-0.16888168 0.10401594 0.708
-0.15726189 0.10207931 0.708
-0.14303887 0.10326663 0.70950007
-0.10332725 0.10430977 0.71000004
-0.10124235 0.10416286 0.70900005
-0.097500943 0.10236766 0.71000004
-0.094388634 0.1021514 0.70850003
-0.091416396 0.10207931 0.708
-0.066240169 0.10207931 0.708
-0.061441269 0.1021514 0.70850003
-0.058576263 0.10222349 0.70900005
-0.055588692 0.10207931 0.708
-0.052758161 0.10222349 0.70900005
-0.050818793 0.10222349 0.70900005
-0.047006264 0.10430977 0.71000004
-0.16307178 0.10595257 0.708
-0.16113515 0.10595257 0.708
-0.10601526 0.10699572 0.70850003
-0.046873849 0.10595257 0.708
0.053831026 0.10788921 0.708
-0.045064162 0.10819397 0.71000004
-0.025607014 0.10998096 0.70900005
-0.023634266 0.10982583 0.708
-0.019761002 0.10982583 0.708
-0.016856052 0.10982583 0.708
-0.012014473 0.10982583 0.708
-0.00039467865 0.10982583 0.708
0.052040987 0.10819397 0.71000004
-0.033458602 -0.13281359 0.71100003
-0.023767794 -0.13494796 0.71200001
-0.20572203 -0.13096078 0.71150005
-0.20099699 -0.12910524 0.71200001
-0.19515426 -0.12910524 0.71200001
-0.051033825 -0.12910524 0.71200001
-0.049155191 -0.12928657 0.71300006
-0.041295957 -0.13105281 0.71200001
-0.035503026 -0.13123688 0.71300006
-0.20294456 -0.12715766 0.71200001
-0.19974227 -0.12795149 0.71100003
-0.19682501 -0.12892391 0.71100003
-0.19488017 -0.12697907 0.71100003
-0.055941328 -0.12724696 0.71250004
-0.053055808 -0.12733626 0.71300006
-0.19125912 -0.12423767 0.71200001
-0.091803752 -0.1230894 0.71100003
-0.089858912 -0.1230894 0.71100003
-0.07624504 -0.12406181 0.71100003
-0.073481806 -0.12432355 0.71250004
-0.07050956 -0.12521009 0.71200001
-0.067231499 -0.12450137 0.71166664
-0.06475766 -0.12538595 0.71300006
-0.18567681 -0.12148534 0.71300006
-0.10376385 -0.12148534 0.71300006
-0.10076835 -0.12140014 0.71250004
-0.097775586 -0.12131494 0.71200001
-0.18346883 -0.11936737 0.71200001
-0.17834905 -0.11919972 0.71100003
-0.17543179 -0.11919972 0.71100003
-0.17263517 -0.11830976 0.71150005
-0.10354555 -0.11830976 0.71150005
-0.10062554 -0.11928354 0.71150005
-0.097775586 -0.11936737 0.71200001
-0.078409828 -0.1156344 0.71300006
-0.076352283 -0.11547222 0.71200001
-0.074509211 -0.1156344 0.71300006
-0.10347278 -0.11142036 0.71100003
-0.084260754 -0.11173379 0.71300006
-0.078299858 -0.11352465 0.71200001
-0.07050956 -0.11352465 0.71200001
-0.062807351 -0.11173379 0.71300006
-0.10571416 -0.10978348 0.71300006
-0.060857046 -0.10978348 0.71300006
-0.041353956 -0.10978348 0.71300006
-0.10946103 -0.10573435 0.71200001
-0.10736246 -0.10753069 0.71100003
-0.086090147 -0.10670678 0.71200001
-0.055901386 -0.10768193 0.71200001
-0.053055808 -0.10783317 0.71300006
-0.050962143 -0.10753069 0.71100003
-0.035503026 -0.10588286 0.71300006
-0.17007436 -0.10393255 0.71300006
-0.088161372 -0.10393255 0.71300006
-0.16399309 -0.099891633 0.71200001
-0.11156508 -0.10003193 0.71300006
-0.08907333 -0.10093693 0.71250004
-0.15815037 -0.097944058 0.71200001
-0.094012305 -0.096131317 0.71300006
-0.090111688 -0.098081626 0.71300006
-0.010149011 -0.096131317 0.71300006
-0.15522766 -0.095021337 0.71200001
-0.1093073 -0.095861658 0.71100003
-0.10736246 -0.093916818 0.71100003
-0.031602409 -0.094181009 0.71300006
-0.010120543 -0.093916818 0.71100003
-0.0072076665 -0.095929071 0.71150005
-0.0023444821 -0.09404891 0.71200001
0.054059122 -0.093916818 0.71100003
-0.15209374 -0.091971986 0.71100003
-0.14862095 -0.090280391 0.71300006
-0.01208235 -0.090153761 0.71200001
0.001552843 -0.0922307 0.71300006
0.0034933258 -0.090027146 0.71100003
0.054059122 -0.090027146 0.71100003
-0.14667064 -0.088330075 0.71300006
-0.015955057 -0.088082306 0.71100003
-0.1657076 -0.084192634 0.71100003
-0.16399309 -0.084311046 0.71200001
-0.14236954 -0.086137466 0.71100003
-0.1404247 -0.084192634 0.71100003
-0.1093073 -0.084192634 0.71100003
-0.0296521 -0.086379766 0.71300006
-0.025715368 -0.084311046 0.71200001
-0.016962504 -0.085345402 0.71250004
0.0073830024 -0.086137466 0.71100003
0.054059122 -0.086137466 0.71100003
-0.17007436 -0.082479149 0.71300006
-0.16204552 -0.082363471 0.71200001
-0.016952652 -0.082363471 0.71200001
0.0093540791 -0.082479149 0.71300006
-0.1776261 -0.078468323 0.71200001
-0.17373095 -0.080415897 0.71200001
-0.15987308 -0.078358114 0.71100003
-0.13301848 -0.078578532 0.71300006
-0.10347278 -0.080302954 0.71100003
-0.025715368 -0.080415897 0.71200001
-0.022437854 -0.079006396 0.71100003
-0.019872645 -0.078468323 0.71200001
0.00740377 -0.078578532 0.71300006
0.0093540791 -0.08052884 0.71300006
-0.13106817 -0.076628223 0.71300006
-0.11514181 -0.076413274 0.71100003
-0.18736397 -0.074573182 0.71200001
-0.1854164 -0.074573182 0.71200001
-0.15837251 -0.074677914 0.71300006
-0.12716755 -0.074677914 0.71300006
-0.124866 -0.072523601 0.71100003
-0.1181414 -0.073548391 0.71150005
0.0041483417 -0.073923983 0.71200007
-0.15620279 -0.070678033 0.71200001
-0.041295957 -0.070678033 0.71200001
-0.034479447 -0.070678033 0.71200001
-0.15425523 -0.066782884 0.71200001
-0.09972316 -0.066782884 0.71200001
-0.034480814 -0.066782884 0.71200001
-0.0013704166 -0.067708403 0.71150005
0.054135151 -0.066782884 0.71200001
-0.035503026 -0.064926371 0.71300006
-0.002347775 -0.064926371 0.71300006
-0.097638264 -0.062799409 0.71100003
-0.043304265 -0.06102575 0.71300006
-0.033552717 -0.062000908 0.71300006
-0.031513765 -0.060854573 0.71100003
-0.029568925 -0.060854573 0.71100003
-0.004292056 -0.062887736 0.71200001
0.054211188 -0.062976062 0.71300006
-0.095962614 -0.059075441 0.71300006
-0.084024392 -0.058909733 0.71100003
-0.076298662 -0.057977375 0.71150005
-0.027682366 -0.058058862 0.71250004
-0.0062308656 -0.058909733 0.71100003
0.054173172 -0.058060229 0.71250004
-0.20460437 -0.055992477 0.71100003
-0.087914072 -0.056964893 0.71100003
-0.043304265 -0.055174824 0.71300006
-0.025679249 -0.056964893 0.71100003
-0.021820219 -0.055097442 0.71200001
-0.019844735 -0.055020057 0.71100003
-0.0062308656 -0.056964893 0.71100003
-0.11530375 -0.051202293 0.71200001
-0.112462 -0.053187191 0.71250004
-0.10961477 -0.053224515 0.71300006
-0.10653967 -0.051202293 0.71200001
-0.045254573 -0.051274206 0.71300006
-0.0072191656 -0.052213404 0.71250004
-0.0042980839 -0.053224515 0.71300006
-0.0023444821 -0.053149868 0.71200001
0.0054458124 -0.053149868 0.71200001
0.054173172 -0.052212037 0.71250004
-0.099583104 -0.049185541 0.71100003
-0.097912923 -0.049323894 0.71300006
0.054135151 -0.049254723 0.71200001
-0.20557679 -0.046268284 0.71100003
-0.16032282 -0.047373585 0.71300006
-0.12114647 -0.045359574 0.71200001
-0.1191989 -0.047307149 0.71200001
-0.097775586 -0.047307149 0.71200001
-0.091932863 -0.045359574 0.71200001
-0.068658277 -0.045423277 0.71300006
-0.054928973 -0.045359574 0.71200001
-0.050962143 -0.047240704 0.71100003
-0.027624087 -0.045295864 0.71100003
-0.021850865 -0.047373585 0.71300006
0.054211188 -0.045423277 0.71300006
-0.16959728 -0.043351028 0.71100003
-0.12114647 -0.043411996 0.71200001
-0.088037722 -0.043411996 0.71200001
-0.16691309 -0.041464426 0.71200001
-0.16290414 -0.041435309 0.71150005
-0.15792824 -0.039461348 0.71100003
-0.12326694 -0.039572351 0.71300006
-0.084024392 -0.041406188 0.71100003
-0.082310446 -0.040547505 0.71300006
-0.043304265 -0.039572351 0.71300006
-0.039403647 -0.041522659 0.71300006
0.011272678 -0.041406188 0.71100003
-0.124866 -0.037516512 0.71100003
-0.1776261 -0.035621703 0.71200001
-0.053055808 -0.033721425 0.71300006
-0.15230764 -0.031726554 0.71200001
-0.18126631 -0.02779232 0.71100003
-0.1789254 -0.028481513 0.71200007
-0.13088433 -0.027831409 0.71200001
-0.12816776 -0.02845454 0.71133333
0.013236107 -0.027831409 0.71200001
-0.18904567 -0.025847482 0.71100003
-0.13477948 -0.025883835 0.71200001
0.013254697 -0.025920188 0.71300006
-0.1501489 -0.023902643 0.71100003
-0.1484125 -0.021988688 0.71200001
-0.10541762 -0.021957805 0.71100003
-0.10354555 -0.022945665 0.71150005
-0.10037235 -0.023286158 0.71200007
-0.097638264 -0.021957805 0.71100003
-0.086090147 -0.021988688 0.71200001
0.004470658 -0.022961106 0.71200001
0.00740377 -0.023969879 0.71300006
-0.14862095 -0.020069262 0.71300006
-0.10946103 -0.020041114 0.71200001
-0.10556588 -0.018093539 0.71200001
-0.095962614 -0.020069262 0.71300006
-0.052906983 -0.018068129 0.71100003
-0.0081987018 -0.018118953 0.71300006
-0.004292056 -0.020041114 0.71200001
-0.18515599 -0.016123291 0.71100003
-0.1484125 -0.016145967 0.71200001
-0.014049629 -0.016168645 0.71300006
-0.19876985 -0.014178452 0.71100003
-0.18515599 -0.012233614 0.71100003
-0.088161372 -0.014218335 0.71300006
-0.061702799 -0.014188422 0.71150005
-0.058824115 -0.013225975 0.71200001
-0.029568925 -0.012233614 0.71100003
-0.017899897 -0.014178452 0.71100003
-0.14625922 -0.010288775 0.71100003
-0.080247432 -0.010303246 0.71200001
-0.070608586 -0.010317717 0.71300006
-0.056956425 -0.010317717 0.71300006
-0.033552717 -0.010317717 0.71300006
-0.18515599 -0.0083439369 0.71100003
-0.07645952 -0.0083674081 0.71300006
-0.068465687 -0.0063990983 0.71100003
-0.056956425 -0.0083674081 0.71300006
-0.045191105 -0.0064080982 0.71200001
-0.041353956 -0.0083674081 0.71300006
-0.017950246 -0.0083674081 0.71300006
-0.068561986 -0.0044605248 0.71200001
-0.012065381 -0.0025094219 0.71100003
-0.010134777 -0.00056537765 0.71200001
0.038608715 0.0013841373 0.71300006
-0.14062221 0.0052773431 0.71200001
-0.068658277 0.0052847555 0.71300006
-0.053055808 0.0052847555 0.71300006
-0.13301848 0.0072350642 0.71300006
-0.068658277 0.0072350642 0.71300006
-0.052906983 0.0072147697 0.71100003
-0.12884623 0.010139836 0.71150005
-0.06851384 0.010138469 0.71150005
-0.050024197 0.010139836 0.71150005
0.0015506651 0.0091724908 0.71200001
0.040502138 0.011120064 0.71200001
-0.12875567 0.013049284 0.71100003
-0.074300207 0.014994122 0.71100003
-0.066614412 0.013067639 0.71200001
-0.064576015 0.013049284 0.71100003
-0.049017306 0.013049284 0.71100003
-0.047072466 0.014994122 0.71100003
-0.16204552 0.016962785 0.71200001
-0.14472033 0.016986609 0.71300006
-0.070608586 0.016986609 0.71300006
-0.067912795 0.016313594 0.71200007
-0.064666837 0.016962785 0.71200001
-0.047072466 0.01693896 0.71100003
-0.16594066 0.01891036 0.71200001
-0.14277002 0.018936917 0.71300006
-0.13964842 0.020857932 0.71200001
-0.076352283 0.020857932 0.71200001
-0.074509211 0.018936917 0.71300006
-0.043243531 0.020857932 0.71200001
-0.033552717 0.020887228 0.71300006
0.044397283 0.01891036 0.71200001
-0.14236954 0.022773476 0.71100003
-0.097775586 0.022805506 0.71200001
-0.095693424 0.022773476 0.71100003
-0.029568925 0.022773476 0.71100003
0.0093540791 0.022837538 0.71300006
-0.16679655 0.026681904 0.71150005
-0.16399309 0.026700653 0.71200001
-0.16181792 0.026663153 0.71100003
-0.15706551 0.026681904 0.71150005
-0.15425523 0.026700653 0.71200001
-0.1501489 0.026663153 0.71100003
-0.1484125 0.026700653 0.71200001
-0.14646493 0.026700653 0.71200001
-0.14236954 0.024718314 0.71100003
-0.10152794 0.026663153 0.71100003
-0.088948317 0.025709484 0.71150005
-0.041353956 0.024787847 0.71300006
-0.027624087 0.024718314 0.71100003
-0.16983581 0.028648227 0.71200001
-0.14431438 0.028607991 0.71100003
-0.10347278 0.028607991 0.71100003
-0.041237954 0.028607991 0.71100003
-0.023767794 0.028648227 0.71200001
-0.17154212 0.030552829 0.71100003
-0.14646493 0.031569589 0.71200001
-0.10361831 0.030595802 0.71200001
-0.10076699 0.032566227 0.71250004
-0.039348383 0.030595802 0.71200001
-0.021789573 0.030552829 0.71100003
0.00740377 0.030638773 0.71300006
-0.15036008 0.034490947 0.71200001
-0.15230764 0.036438521 0.71200001
-0.094788298 0.037385352 0.71150005
-0.064576015 0.038332183 0.71100003
-0.062098522 0.037104771 0.71233338
-0.058824118 0.037412308 0.71200001
-0.035403442 0.038332183 0.71100003
-0.010134777 0.038386095 0.71200001
-0.0072090342 0.038359139 0.71150005
-0.0042980839 0.038440008 0.71300006
0.001552843 0.036489699 0.71300006
-0.16376276 0.040277019 0.71100003
-0.15425523 0.04033367 0.71200001
-0.092061996 0.04039032 0.71300006
-0.07050956 0.04033367 0.71200001
-0.058906734 0.04039032 0.71300006
-0.056876544 0.04033367 0.71200001
-0.035453234 0.04033367 0.71200001
-0.17737663 0.044166695 0.71100003
-0.16009794 0.042281244 0.71200001
-0.092061996 0.044290937 0.71300006
-0.07818988 0.042221859 0.71100003
-0.072457135 0.042281244 0.71200001
-0.058824115 0.043256398 0.71200001
-0.056876544 0.044228818 0.71200001
-0.039293118 0.044166695 0.71100003
-0.082310446 0.046241246 0.71300006
-0.079329997 0.046208818 0.71250004
-0.07645952 0.046241246 0.71300006
-0.074509211 0.046241246 0.71300006
-0.058906734 0.046241246 0.71300006
-0.056796659 0.046111535 0.71100003
-0.041237954 0.046111535 0.71100003
-0.094852865 0.050071537 0.71200001
-0.091803752 0.050001211 0.71100003
-0.088037722 0.048123959 0.71200001
-0.072355367 0.048056372 0.71100003
-0.07050956 0.048123959 0.71200001
-0.067589566 0.049096383 0.71200001
-0.055904124 0.049099118 0.71200001
-0.093748584 0.051946051 0.71100003
-0.066661194 0.053029425 0.71250004
-0.054928973 0.052019108 0.71200001
-0.049155191 0.052092172 0.71300006
-0.10361831 0.055914257 0.71200001
-0.10181354 0.054042481 0.71300006
-0.093748584 0.055835728 0.71100003
-0.066707969 0.05599279 0.71300006
-0.10167073 0.059809402 0.71200001
-0.093748584 0.057780564 0.71100003
-0.066661194 0.058877617 0.71250004
-0.093880437 0.061756976 0.71200001
-0.093748584 0.063615076 0.71100003
-0.066520847 0.063615076 0.71100003
-0.064666837 0.06370455 0.71200001
-0.06178952 0.063749284 0.71250004
-0.058906734 0.063794024 0.71300006
-0.049017306 0.065559916 0.71100003
-0.17932147 0.067504756 0.71100003
-0.045191105 0.08512786 0.71200001
-0.12114647 0.087075435 0.71200001
-0.045191102 0.088047862 0.71200001
-0.055862814 0.094799116 0.71150005
-0.052043449 0.094932348 0.71250004
-0.15209374 0.096677333 0.71100003
-0.13301848 0.098899581 0.71300006
-0.11335617 0.096813306 0.71200001
-0.073380038 0.098691523 0.71150005
-0.070410527 0.098622166 0.71100003
-0.06754005 0.098691523 0.71150005
-0.064666837 0.097788453 0.71200001
-0.062070072 0.097463407 0.71200007
-0.056876544 0.096813306 0.71200001
-0.13496879 0.10084989 0.71300006
-0.052007612 0.10070845 0.71200001
-0.15792824 0.10445669 0.71100003
-0.1404247 0.10445669 0.71100003
-0.10571416 0.10475051 0.71300006
-0.10376385 0.1028002 0.71300006
-0.10062692 0.10258394 0.71150005
-0.049017306 0.10251185 0.71100003
-0.1657076 0.10640153 0.71100003
0.044459641 0.10865113 0.71300006
0.046344858 0.10849875 0.71200001
0.049197026 0.10834636 0.71100003
-0.031646732 -0.13337399 0.71400005
-0.028776813 -0.13365418 0.7155
-0.025859833 -0.13374758 0.71600002
0.052334178 -0.13337399 0.71400005
-0.046327665 -0.12955856 0.71450007
-0.039458912 -0.13142094 0.71400005
-0.037558395 -0.131605 0.71500003
-0.033599779 -0.13142094 0.71400005
-0.031691056 -0.131605 0.71500003
0.052334178 -0.13142094 0.71400005
-0.051177174 -0.12751485 0.71400005
-0.049224131 -0.12751485 0.71400005
-0.046359405 -0.12769344 0.71500003
0.052334178 -0.12751485 0.71400005
-0.070707619 -0.12360876 0.71400005
-0.068754576 -0.12360876 0.71400005
-0.064848483 -0.12360876 0.71400005
-0.062302243 -0.1243761 0.71466666
-0.059071973 -0.12378188 0.71500003
0.052480768 -0.12493427 0.71600002
-0.096097201 -0.12165572 0.71400005
-0.094276011 -0.1218261 0.71500003
-0.088532314 -0.12199649 0.71600002
-0.085415907 -0.12174091 0.71450007
-0.082541332 -0.1218261 0.71500003
-0.080585547 -0.1218261 0.71500003
-0.076781228 -0.12003798 0.71600002
-0.074822709 -0.12003798 0.71600002
-0.063071623 -0.12003798 0.71600002
-0.10209913 -0.11791454 0.71500003
-0.096097201 -0.11970267 0.71400005
-0.094144158 -0.11970267 0.71400005
-0.091279149 -0.1197865 0.71450007
-0.088285014 -0.11970267 0.71400005
-0.085355446 -0.11970267 0.71400005
-0.082425885 -0.11970267 0.71400005
-0.079607658 -0.11987032 0.71500003
0.05240747 -0.11889243 0.71500003
-0.10195633 -0.11579658 0.71400005
-0.07276243 -0.11595876 0.71500003
0.052334178 -0.11579658 0.71400005
-0.10224192 -0.11220392 0.71600002
-0.068754576 -0.11384354 0.71400005
-0.088532314 -0.10828689 0.71600002
-0.086573802 -0.1102454 0.71600002
-0.039569438 -0.1102454 0.71600002
0.052407473 -0.1071564 0.71500003
-0.1664068 -0.10212527 0.71400005
-0.11187802 -0.1022683 0.71500003
-0.10976851 -0.10407832 0.71400005
0.052334178 -0.10407832 0.71400005
0.052480768 -0.10045283 0.71600002
-0.11172155 -0.098219186 0.71400005
-0.10796647 -0.096400961 0.71500003
-0.012133259 -0.096400961 0.71500003
-0.0043161684 -0.096535794 0.71600002
-0.10615895 -0.094577283 0.71600002
-0.10028341 -0.094577283 0.71600002
-0.01211629 -0.094313093 0.71400005
-0.014069335 -0.091383532 0.71400005
-0.025859833 -0.088701732 0.71600002
-0.017975423 -0.088453963 0.71400005
0.0074349218 -0.088701732 0.71600002
-0.10698721 -0.086622067 0.71500003
-0.025859833 -0.086743213 0.71600002
-0.023867939 -0.085644171 0.71500003
-0.018977121 -0.085645542 0.71500003
-0.13906418 -0.082594827 0.71400005
-0.025823718 -0.082710505 0.71500003
-0.022905372 -0.082768351 0.7155
-0.019984288 -0.08282619 0.71600002
-0.13711113 -0.080641784 0.71400005
-0.10420044 -0.078909159 0.71600002
-0.02776007 -0.079721734 0.71450007
0.052480768 -0.08086767 0.71600002
0.0074141538 -0.076735698 0.71400005
-0.12770262 -0.073033608 0.71600002
0.0054611098 -0.072829612 0.71400005
0.052480768 -0.073033608 0.71600002
-0.1236127 -0.070975825 0.71500003
-0.12165692 -0.070975825 0.71500003
-0.043425735 -0.069020048 0.71500003
-0.039514177 -0.069996566 0.71500003
-0.037505865 -0.070876561 0.71400005
0.0015561099 -0.069948301 0.71450007
-0.045318041 -0.066970475 0.71400005
-0.037558395 -0.068040788 0.71500003
-0.15273549 -0.063064389 0.71400005
-0.035552822 -0.061111342 0.71400005
-0.0023576533 -0.061282519 0.71600002
-0.082541332 -0.05924115 0.71500003
-0.07873974 -0.059324004 0.71600002
-0.043364998 -0.059158299 0.71400005
-0.0043071257 -0.058223203 0.71450007
-0.023834556 -0.055252209 0.71400005
-0.012150228 -0.055406976 0.71600002
0.054363251 -0.055329591 0.71500003
-0.15273549 -0.051346119 0.71400005
-0.11791004 -0.051489946 0.71600002
-0.11595153 -0.053448461 0.71600002
-0.10698858 -0.05337381 0.71500003
-0.10345057 -0.052094843 0.7153334
-0.074822709 -0.051489946 0.71600002
-0.043425735 -0.05337381 0.71500003
-0.023867939 -0.05337381 0.71500003
-0.016067259 -0.053448461 0.71600002
-0.012791754 -0.052746762 0.7153334
-0.010170363 -0.052358598 0.71450007
-0.0072336788 -0.052322641 0.71400005
-0.11970115 -0.049462251 0.71500003
-0.017975423 -0.049393076 0.71400005
-0.096097201 -0.04744003 0.71400005
-0.094407864 -0.047572915 0.71600002
-0.090238065 -0.045486987 0.71400005
-0.088532314 -0.045614399 0.71600002
-0.029693689 -0.045486987 0.71400005
0.0093803182 -0.04750647 0.71500003
0.054287221 -0.04744003 0.71400005
-0.086452886 -0.043594915 0.71500003
-0.033599779 -0.043533944 0.71400005
0.054363251 -0.043594915 0.71500003
-0.12343982 -0.041580897 0.71400005
-0.080585547 -0.039683353 0.71500003
-0.045444984 -0.039738856 0.71600002
0.054287221 -0.041580897 0.71400005
-0.076781228 -0.037780341 0.71600002
0.054439284 -0.037780341 0.71600002
-0.12752426 -0.035771795 0.71500003
-0.051248856 -0.035771795 0.71500003
0.013291878 -0.035771795 0.71500003
0.054363251 -0.033816013 0.71500003
-0.12948005 -0.031860236 0.71500003
-0.07873974 -0.031904794 0.71600002
-0.053204633 -0.031860236 0.71500003
-0.080472842 -0.027909588 0.71400005
0.0093671978 -0.024003498 0.71400005
-0.10195633 -0.022050453 0.71400005
0.0054764068 -0.022112219 0.71600002
-0.10796647 -0.020125557 0.71500003
-0.10420044 -0.01819519 0.71600002
-0.096097201 -0.018144365 0.71400005
-0.088532314 -0.020153705 0.71600002
-0.0062746834 -0.01819519 0.71600002
-0.0023543607 -0.020125557 0.71500003
-0.092449345 -0.016236674 0.71600002
-0.14687635 -0.014238276 0.71400005
-0.084378928 -0.012285232 0.71400005
-0.068754576 -0.012285232 0.71400005
-0.064939313 -0.014258218 0.71500003
-0.027779497 -0.012302439 0.71500003
-0.025859833 -0.012319644 0.71600002
-0.016022379 -0.014238276 0.71400005
-0.070905678 -0.0084026139 0.71600002
-0.047271084 -0.0064260992 0.71400005
-0.043425735 -0.0064350991 0.71500003
-0.039569438 -0.0084026139 0.71600002
-0.023867939 -0.0064350991 0.71500003
-0.019928467 -0.0083791437 0.71400005
-0.025859833 -0.0044855843 0.71600002
-0.014069335 -0.0044730543 0.71400005
-0.055237561 -0.00056855392 0.71600002
-0.027779497 -0.0025235396 0.71500003
-0.053204633 0.0013880199 0.71500003
-0.031691056 0.0013880199 0.71500003
-0.0062659197 0.0013880199 0.71500003
-0.13906418 0.0052921674 0.71400005
-0.053204633 0.0033437996 0.71500003
-0.033693895 0.003348476 0.71600002
-0.0043161684 0.003348476 0.71600002
-0.070707619 0.0072452114 0.71400005
-0.051248856 0.0072553586 0.71500003
-0.035602618 0.0072553586 0.71500003
-0.00039802337 0.0072452114 0.71400005
-0.072660662 0.0111513 0.71400005
-0.049362015 0.0092240209 0.71600002
-0.13906418 0.013104345 0.71400005
-0.068754576 0.013104345 0.71400005
0.0054687583 0.013122698 0.71500003
-0.13134392 0.016044457 0.71450007
-0.072864197 0.017058082 0.71600002
-0.070707619 0.01505739 0.71400005
-0.045381516 0.017034257 0.71500003
-0.039514177 0.015078478 0.71500003
0.0074141538 0.01505739 0.71400005
0.046605226 0.015099567 0.71600002
-0.13320504 0.020916523 0.71400005
-0.043364998 0.018963479 0.71400005
-0.037505865 0.018963479 0.71400005
0.009373758 0.019954648 0.71450007
-0.041411955 0.022869566 0.71400005
-0.02877818 0.02585265 0.7155
0.0093868775 0.025854018 0.7155
-0.10209913 0.030724715 0.71500003
-0.086452886 0.032680497 0.71500003
-0.037505865 0.032634787 0.71400005
-0.019956378 0.032680497 0.71500003
-0.096231788 0.034636274 0.71500003
0.0054764068 0.034684718 0.71600002
-0.084615283 0.036643233 0.71600002
-0.060942397 0.03849392 0.71400005
-0.03565241 0.036643233 0.71600002
-0.013119633 0.037596904 0.7155
-0.0023543607 0.038547833 0.71500003
-0.067871615 0.040503614 0.71500003
-0.082656771 0.044477291 0.71600002
-0.079932712 0.043764155 0.71500009
-0.076781228 0.044477291 0.71600002
-0.070806652 0.042459395 0.71500003
-0.061027754 0.042459395 0.71500003
-0.035552822 0.04240001 0.71400005
-0.084497109 0.046370957 0.71500003
-0.07276243 0.046370957 0.71500003
-0.070806652 0.046370957 0.71500003
-0.067967907 0.046435807 0.71600002
-0.094276011 0.048326734 0.71500003
-0.090490833 0.048394322 0.71600002
-0.066801526 0.048259143 0.71400005
-0.065030135 0.050352838 0.71600002
-0.057036307 0.048259143 0.71400005
-0.043486468 0.050352838 0.71600002
-0.096366376 0.052311353 0.71600002
-0.057196073 0.052311353 0.71600002
-0.094144158 0.059977408 0.71400005
-0.063960053 0.062017187 0.71500003
-0.059154589 0.062103927 0.71600002
-0.057036307 0.063883498 0.71400005
-0.055237561 0.064062446 0.71600002
-0.052153699 0.063883498 0.71400005
-0.10000329 0.067789584 0.71400005
-0.096929491 0.067263342 0.7153334
-0.047304191 0.070767999 0.71450007
-0.045444984 0.077772051 0.71600002
-0.045444984 0.079730563 0.71600002
-0.045413248 0.082611293 0.7155
-0.045381516 0.091353886 0.71500003
-0.049224131 0.095132209 0.71400005
-0.045444984 0.093440168 0.71600002
-0.055083264 0.097085252 0.71400005
-0.052262582 0.097289212 0.7155
-0.061027754 0.09917701 0.71500003
-0.058052775 0.099107653 0.71450007
-0.055160414 0.09917701 0.71500003
-0.053279046 0.09931571 0.71600002
-0.049224131 0.10099134 0.71400005
-0.047337294 0.10308857 0.71500003
-0.10781547 0.10685048 0.71400005
-0.045381516 0.10700013 0.71500003
-0.043486468 0.10910828 0.71600002
-0.037610926 0.10910828 0.71600002
-0.021942804 0.10910828 0.71600002
-0.01900503 0.10910828 0.71600002
-0.016044818 0.1089559 0.71500003
-0.010191713 0.10910828 0.71600002
-0.0072539411 0.10910828 0.71600002
-0.0043161684 0.10910828 0.71600002
0.010372695 0.10910828 0.71600002
0.013310468 0.10910828 0.71600002
0.038771164 0.10910828 0.71600002
0.04067279 0.1089559 0.71500003
0.042568952 0.10880352 0.71400005
-0.024001464 -0.13332461 0.71900004
-0.043607943 -0.1301932 0.71800005
-0.037768513 -0.13037452 0.71900004
-0.034818429 -0.13037452 0.71900004
-0.03186835 -0.13037452 0.71900004
-0.028837826 -0.13197313 0.71700001
-0.025895951 -0.13197313 0.71700001
0.052554067 -0.13001187 0.71700001
-0.061198458 -0.12608938 0.71700001
-0.058296524 -0.12617731 0.71750003
-0.055391856 -0.12626523 0.71800005
-0.053427871 -0.12626523 0.71800005
-0.043668676 -0.12840781 0.71900004
-0.033835068 -0.12840781 0.71900004
-0.057355843 -0.12430125 0.71800005
-0.055469003 -0.12447436 0.71900004
-0.05350228 -0.12447436 0.71900004
-0.09159784 -0.12216688 0.71700001
-0.078849711 -0.12216688 0.71700001
-0.076888457 -0.12216688 0.71700001
-0.073619701 -0.12151313 0.71700001
-0.07012175 -0.12135527 0.71800005
-0.067128986 -0.12127145 0.71750003
-0.064467207 -0.12151313 0.71700001
-0.061241135 -0.12127145 0.71750003
-0.058719333 -0.12114061 0.71866673
0.052627362 -0.12233726 0.71800005
-0.10042346 -0.11824437 0.71700001
-0.097616181 -0.11840929 0.71800005
-0.079069659 -0.1185742 0.71900004
-0.076119572 -0.1185742 0.71900004
-0.10238472 -0.11432187 0.71700001
-0.10042346 -0.11628313 0.71700001
-0.097548887 -0.11636421 0.71750003
-0.094539717 -0.11628313 0.71700001
-0.091788784 -0.1165264 0.71850002
-0.086936541 -0.11660748 0.71900004
-0.083003096 -0.11660748 0.71900004
-0.080810964 -0.1153025 0.71700001
-0.070120379 -0.1164453 0.71800005
-0.067128986 -0.11538359 0.71750003
-0.064273834 -0.1165264 0.71850002
0.052627362 -0.11448132 0.71800005
-0.094539717 -0.11236063 0.71700001
-0.08669471 -0.11236063 0.71700001
-0.061198458 -0.11236063 0.71700001
0.052554067 -0.11236063 0.71700001
-0.059319828 -0.11055335 0.71800005
-0.045635395 -0.11070731 0.71900004
-0.043547206 -0.11039937 0.71700001
0.052554067 -0.11039937 0.71700001
-0.088655964 -0.10647687 0.71700001
-0.091356128 -0.10395813 0.71766669
-0.033835068 -0.10284043 0.71900004
0.052554067 -0.10255437 0.71700001
-0.092578463 -0.10059312 0.71700001
0.052700661 -0.096940264 0.71900004
-0.014148153 -0.094841458 0.71800005
0.052700661 -0.093006827 0.71900004
-0.016100921 -0.091830805 0.71750003
-0.029818453 -0.088825621 0.71700001
-0.023934701 -0.088825621 0.71700001
-0.020054068 -0.088028088 0.71850002
-0.027934905 -0.085139945 0.71900004
-0.02197345 -0.084903121 0.71700001
0.010387181 -0.085883744 0.71700001
0.052627362 -0.085021526 0.71800005
0.011383662 -0.083057545 0.71800005
0.052700661 -0.083173223 0.71900004
0.010393741 -0.080055088 0.71750003
0.052627362 -0.079129569 0.71800005
0.0074660741 -0.075306341 0.71900004
0.0094196759 -0.077165589 0.71800005
0.052664012 -0.076235965 0.71850002
-0.041643955 -0.069309644 0.71800005
0.0035277184 -0.070291638 0.71800005
0.052627362 -0.070291638 0.71800005
-0.00039969574 -0.067251861 0.71700001
-0.043577574 -0.064354151 0.71750003
-0.037715983 -0.065381669 0.71800005
-0.0013805997 -0.064355515 0.71750003
0.052700661 -0.061539292 0.71900004
-0.08669471 -0.057445612 0.71700001
-0.080810964 -0.059406862 0.71700001
-0.031824026 -0.059489712 0.71800005
-0.029839247 -0.058466293 0.71750003
-0.076888457 -0.055484362 0.71700001
-0.02593207 -0.055561744 0.71800005
-0.010205948 -0.055484362 0.71700001
-0.0082446979 -0.055484362 0.71700001
0.0015637326 -0.055561744 0.71800005
-0.076995701 -0.053597756 0.71800005
-0.025968185 -0.053672407 0.71900004
-0.016134581 -0.051705685 0.71900004
-0.014128449 -0.051561862 0.71700001
0.0074660741 -0.051705685 0.71900004
-0.0200122 -0.049600609 0.71700001
-0.072965957 -0.047639359 0.71700001
-0.071103744 -0.045741811 0.71800005
-0.053427871 -0.045741811 0.71800005
-0.031779703 -0.045678109 0.71700001
-0.023934701 -0.047639359 0.71700001
-0.035801791 -0.043838803 0.71900004
-0.079830334 -0.040774979 0.71700001
-0.047602117 -0.039905358 0.71900004
-0.041643955 -0.041813843 0.71800005
0.054591347 -0.039849859 0.71800005
-0.049568839 -0.03793864 0.71900004
0.054515317 -0.035871856 0.71700001
-0.053427871 -0.03002993 0.71800005
0.054515317 -0.031949352 0.71700001
0.054515317 -0.029988103 0.71700001
0.011367806 -0.024104351 0.71700001
0.054591347 -0.026101958 0.71800005
0.0074660741 -0.022204868 0.71900004
0.054667383 -0.022204868 0.71900004
-0.098462217 -0.020181853 0.71700001
-0.0043342528 -0.018271426 0.71900004
-0.00040081065 -0.020238148 0.71900004
-0.012167199 -0.016259352 0.71700001
-0.067175768 -0.014318042 0.71800005
-0.057315901 -0.013327446 0.71750003
-0.024001464 -0.012371263 0.71900004
-0.022034744 -0.012371263 0.71900004
-0.031779703 -0.0103756 0.71700001
-0.049499899 -0.0084260851 0.71800005
-0.037768513 -0.0084378207 0.71900004
-0.014167859 -0.0064710998 0.71900004
-0.055391856 -0.002534128 0.71800005
-0.010220182 -0.002534128 0.71800005
-0.008256196 -0.00057014206 0.71800005
-0.0023609463 0.0053144032 0.71700001
0.040786564 0.0053144032 0.71700001
-0.071103744 0.01023178 0.71800005
-0.047469705 0.013159405 0.71700001
-0.039735232 0.013196112 0.71900004
-0.073997468 0.016111825 0.71750003
-0.045571927 0.015141745 0.71800005
-0.039624706 0.017081905 0.71700001
-0.040690962 0.019082997 0.71850002
-0.041701954 0.021062996 0.71900004
-0.035801791 0.021062996 0.71900004
-0.031779703 0.022965658 0.71700001
-0.039624706 0.02688816 0.71700001
-0.029901627 0.026963159 0.71900004
-0.039624706 0.02884941 0.71700001
-0.025895951 0.02884941 0.71700001
-0.037663452 0.03081066 0.71700001
-0.023934701 0.03081066 0.71700001
-0.035702202 0.034733161 0.71700001
-0.01805095 0.034733161 0.71700001
-0.033835068 0.038763486 0.71900004
-0.00040025319 0.038709573 0.71800005
-0.08277221 0.040616911 0.71700001
-0.061198458 0.040616911 0.71700001
-0.033835068 0.040730208 0.71900004
-0.069043458 0.042578164 0.71700001
-0.0632478 0.042637546 0.71800005
-0.061198458 0.044539414 0.71700001
-0.037663452 0.044539414 0.71700001
-0.064229794 0.046565518 0.71800005
-0.061283812 0.046565518 0.71800005
-0.039679971 0.046565518 0.71800005
-0.065120958 0.04846191 0.71700001
-0.059278518 0.0494777 0.71750003
-0.065120958 0.054345664 0.71700001
-0.055314705 0.054345664 0.71700001
-0.053353455 0.054345664 0.71700001
-0.061198458 0.062190663 0.71700001
-0.057355843 0.062277406 0.71800005
-0.052445877 0.062277406 0.71800005
-0.049499899 0.064241394 0.71800005
-0.047535911 0.095665164 0.71800005
-0.043638311 0.094749793 0.71850002
-0.040675782 0.094715796 0.71825004
-0.049499899 0.097629152 0.71800005
-0.04063433 0.097561166 0.71750003
-0.051392205 0.099454425 0.71700001
-0.047535911 0.10155712 0.71800005
-0.045571927 0.10548509 0.71800005
-0.04063433 0.10933687 0.71750003
-0.034721576 0.10926068 0.71700001
-0.03186835 0.10956545 0.71900004
-0.028918266 0.10956545 0.71900004
-0.025968185 0.10956545 0.71900004
-0.023934701 0.10926068 0.71700001
-0.013147824 0.10926068 0.71700001
-0.0013825248 0.10948926 0.71850002
0.0015659105 0.10956545 0.71900004
0.004512168 0.10948926 0.71850002
0.0074556903 0.10941307 0.71800005
0.016305657 0.10948926 0.71850002
0.0192664 0.10956545 0.71900004
0.022200348 0.10948926 0.71850002
0.025131561 0.10941307 0.71800005
0.02809641 0.10948926 0.71850002
0.032005511 0.10941307 0.71800005
0.03696689 0.10956545 0.71900004
-0.02206539 -0.13351005 0.72000003
-0.019137748 -0.13369548 0.72100002
-0.01615702 -0.13351005 0.72000003
-0.013207077 -0.13355675 0.72025001
-0.0063272649 -0.13289344 0.72200006
0.050839782 -0.13360345 0.72049999
-0.040830489 -0.13073719 0.72100008
-0.028997339 -0.13073719 0.72100008
-0.051678915 -0.1267928 0.72100002
-0.049706724 -0.1267928 0.72100002
-0.046716701 -0.12670487 0.72049999
-0.041817956 -0.12876499 0.72100002
-0.037821043 -0.12858641 0.72000003
-0.035851587 -0.12858641 0.72000003
-0.031912673 -0.12858641 0.72000003
-0.028977914 -0.1286757 0.72049999
-0.025054324 -0.12876499 0.72100002
-0.022096036 -0.12876499 0.72100002
0.05087506 -0.12876499 0.72100002
-0.05160724 -0.12464749 0.72000003
-0.049706724 -0.12482061 0.72100002
-0.046748437 -0.12482061 0.72100002
-0.043790147 -0.12482061 0.72100002
-0.055546153 -0.12070858 0.72000003
0.050945625 -0.11709402 0.72200006
0.050945625 -0.10919431 0.72200006
0.0508045 -0.10495292 0.72000003
0.052773956 -0.099044554 0.72000003
-0.031956997 -0.097209923 0.72100002
-0.014187563 -0.097075097 0.72000003
-0.018176828 -0.09339489 0.72200006
-0.0162019 -0.095369823 0.72200006
-0.00040192559 -0.095237732 0.72100002
0.0035473714 -0.09339489 0.72200006
0.052773956 -0.095105641 0.72000003
-0.018151652 -0.09129335 0.72100002
0.0055146497 -0.09129335 0.72100002
0.052773956 -0.091166735 0.72000003
-0.028032038 -0.08839564 0.72150004
-0.022126682 -0.087470114 0.72200006
0.052847255 -0.088333696 0.72100008
-0.028012613 -0.083404578 0.72100002
0.0074764579 -0.073441625 0.72000003
0.0055184742 -0.070633605 0.72150004
-0.039790496 -0.067533255 0.72000003
0.0015680884 -0.067533255 0.72000003
0.052920554 -0.067720845 0.72200006
-0.039845765 -0.065654851 0.72100002
-0.035851587 -0.063594341 0.72000003
0.0015724442 -0.06574592 0.72200006
0.052847255 -0.065654851 0.72100002
-0.034891754 -0.059696853 0.72049999
-0.031912673 -0.057685971 0.72000003
-0.0023724712 -0.058710758 0.72049999
0.052810606 -0.058712125 0.72049999
-0.02797376 -0.055716515 0.72000003
-0.0063097375 -0.055716515 0.72000003
-0.0043523377 -0.055871282 0.72200006
-0.00040192559 -0.055793896 0.72100002
0.003537545 -0.055716515 0.72000003
0.052920554 -0.055871282 0.72200006
-0.019139115 -0.053821705 0.72100008
0.052847255 -0.052834243 0.72100008
0.052847255 -0.049877319 0.72100002
