# .PCD v0.7 - Point Cloud Data file format
VERSION 0.7
FIELDS x y z
SIZE 4 4 4
TYPE F F F
COUNT 1 1 1
WIDTH 1344
HEIGHT 1
VIEWPOINT 0 0 0 1 0 0 0
POINTS 1344
DATA ascii
0.043337233 -0.10891301 0.69499999
-0.10946166 -0.10678098 0.69350004
0.03953509 -0.10511086 0.69499999
0.043337233 -0.10511086 0.69499999
0.045238305 -0.10511086 0.69499999
-0.13896549 -0.1030613 0.69400001
-0.10384488 -0.10400909 0.69400001
-0.030715946 -0.10291279 0.69300002
0.041406356 -0.10408471 0.69449997
-0.13536358 -0.099407643 0.69499999
-0.10092598 -0.1001409 0.69350004
-0.015551132 -0.10101718 0.69300002
-0.00987856 -0.099264614 0.69400001
-0.0070332447 -0.10024886 0.69425005
-0.0041895765 -0.10130872 0.69499999
0.037634015 -0.10130872 0.69499999
0.040413156 -0.10017665 0.69375002
0.043274879 -0.10116296 0.69400001
0.046483994 -0.10062644 0.69466668
-0.13327047 -0.097366281 0.69400001
-0.13118283 -0.097225986 0.69300002
-0.097062014 -0.097225986 0.69300002
-0.028861931 -0.097366281 0.69400001
-0.011793866 -0.097506575 0.69499999
-0.0060818857 -0.097366281 0.69400001
0.035732947 -0.097506575 0.69499999
0.040398933 -0.097296134 0.69350004
0.046188846 -0.097506575 0.69499999
0.049040452 -0.097506575 0.69499999
-0.12766737 -0.094586186 0.69449997
-0.097062014 -0.09533038 0.69300002
-0.059149973 -0.09533038 0.69300002
-0.023200301 -0.0956055 0.69499999
-0.00987856 -0.094518773 0.69400001
-0.0070368033 -0.09458755 0.69449997
-0.0041895765 -0.093704432 0.69499999
0.035681531 -0.094520144 0.69400001
0.037634015 -0.0956055 0.69499999
0.040130857 -0.094248235 0.69433331
-0.12472932 -0.091671273 0.69400001
-0.09353999 -0.091803357 0.69499999
-0.059149973 -0.091539182 0.69300002
0.037634015 -0.091803357 0.69499999
0.039478205 -0.091671266 0.69400001
-0.12170483 -0.089643575 0.69300002
-0.11998212 -0.087874599 0.69400001
-0.091375202 -0.089643575 0.69300002
-0.059235327 -0.087874599 0.69400001
-0.015573571 -0.089772925 0.69400001
-0.0060818857 -0.088822395 0.69400001
-0.0041775205 -0.089643575 0.69300002
-0.0022885043 -0.089902282 0.69499999
0.035732947 -0.088951752 0.69499999
0.037525717 -0.089643575 0.69300002
0.041316926 -0.089643575 0.69300002
0.043274879 -0.089772925 0.69400001
0.045238305 -0.089902282 0.69499999
-0.11825392 -0.084199071 0.69499999
-0.084585883 -0.085383855 0.69433331
-0.061045572 -0.08585237 0.69300002
-0.0079687238 -0.08585237 0.69300002
-0.0041835485 -0.085976258 0.69400001
0.031266481 -0.085383855 0.69433331
0.033783194 -0.084077924 0.69400001
0.037579864 -0.08502572 0.69400001
0.040149819 -0.085425161 0.69466662
0.043274879 -0.08502572 0.69400001
0.045173217 -0.085976258 0.69400001
-0.11523764 -0.082179576 0.69400001
-0.083913706 -0.082179584 0.69400001
-0.066732377 -0.083956771 0.69300002
-0.01365553 -0.082061164 0.69300002
-0.0060906489 -0.082297996 0.69499999
-0.0041835485 -0.082179584 0.69400001
0.029943312 -0.082061164 0.69300002
0.035630118 -0.083956771 0.69300002
0.041316926 -0.082061164 0.69300002
0.043212526 -0.082061164 0.69300002
0.045238305 -0.082297996 0.69499999
-0.11057003 -0.079388544 0.69449997
-0.085688397 -0.079217762 0.69300002
-0.0060906489 -0.078495853 0.69499999
-0.0041835485 -0.078382909 0.69400001
0.028088184 -0.078382909 0.69400001
0.031930801 -0.08039692 0.69499999
0.034756701 -0.080339082 0.69449997
0.037634015 -0.08039692 0.69499999
0.040110987 -0.079016596 0.69400001
0.043274879 -0.078382909 0.69400001
0.045238305 -0.078495853 0.69499999
-0.10654002 -0.076374359 0.69300002
-0.087584004 -0.076374359 0.69300002
0.029943312 -0.076374359 0.69300002
0.031884857 -0.076484568 0.69400001
0.034758069 -0.076539673 0.69449997
0.037579868 -0.076484568 0.69400001
0.03953509 -0.076594777 0.69499999
-0.10684749 -0.074693702 0.69499999
-0.10384762 -0.074586228 0.69400001
-0.011776896 -0.074586235 0.69400001
-0.0060906489 -0.074693702 0.69499999
-0.0041835485 -0.073635697 0.69400001
0.029017117 -0.073583327 0.69350004
0.031838916 -0.072583161 0.69300002
0.033783194 -0.072687894 0.69400001
0.040398933 -0.074532494 0.69350004
0.043337233 -0.074693702 0.69499999
-0.078105994 -0.070687562 0.69300002
-0.0041775205 -0.070687562 0.69300002
0.025258176 -0.07084056 0.69449997
0.028047713 -0.070687562 0.69300002
0.037525717 -0.070687562 0.69300002
0.03953509 -0.070891559 0.69499999
-0.09720207 -0.06889122 0.69400001
-0.095166408 -0.068791956 0.69300002
-0.0022885043 -0.067089416 0.69499999
0.024256505 -0.066896357 0.69300002
0.029037353 -0.06889122 0.69400001
0.031838916 -0.068791956 0.69300002
0.034758069 -0.068940848 0.69449997
0.037634015 -0.068990484 0.69499999
0.040428743 -0.066992886 0.69400001
-0.0013346751 -0.063196212 0.69400001
0.022393173 -0.063196212 0.69400001
0.02491262 -0.064431414 0.6936667
0.028047713 -0.06500075 0.69300002
0.035630118 -0.06500075 0.69300002
0.037579868 -0.065094545 0.69400001
0.03942132 -0.063105151 0.69300002
-0.076210395 -0.061209548 0.69300002
-0.019342335 -0.061209548 0.69300002
-0.01653396 -0.061342034 0.69449997
-0.0022885043 -0.061386198 0.69499999
0.025239309 -0.061297871 0.69400001
0.037634015 -0.061386198 0.69499999
-0.037376817 -0.057459772 0.69350004
-0.013694939 -0.058534592 0.69499999
-0.010812127 -0.059313945 0.69300002
-0.0067079104 -0.0587097 0.69333339
-0.0041835485 -0.058449 0.69400001
-0.0022852113 -0.059399538 0.69400001
0.022425437 -0.059485126 0.69499999
0.026227582 -0.057584055 0.69499999
0.035630118 -0.057418346 0.69300002
0.037579868 -0.059399538 0.69400001
-0.074422024 -0.05560286 0.69400001
-0.043985158 -0.05552274 0.69300002
-0.015596012 -0.05568298 0.69499999
-0.0022885043 -0.05568298 0.69499999
0.029943312 -0.05552274 0.69300002
0.035630118 -0.05552274 0.69300002
0.037634015 -0.05568298 0.69499999
-0.072628185 -0.051880836 0.69499999
-0.05733699 -0.051806189 0.69400001
-0.051641978 -0.053704523 0.69400001
-0.01365553 -0.053627141 0.69300002
-0.0060906489 -0.053781908 0.69499999
-0.0022819187 -0.051731542 0.69300002
-0.14486894 -0.04807869 0.69499999
-0.14296786 -0.04807869 0.69499999
-0.066924967 -0.049979765 0.69499999
-0.016522741 -0.048958682 0.69400001
-0.0079687238 -0.049835939 0.69300002
-0.0013360428 -0.048958682 0.69400001
0.028047713 -0.049835939 0.69300002
-0.14581949 -0.046177618 0.69499999
-0.016524108 -0.046111174 0.69400001
-0.0070209228 -0.046044733 0.69300002
-0.0041835485 -0.046111178 0.69400001
-0.0022885043 -0.046177618 0.69499999
0.024924286 -0.046743046 0.69400001
0.028995512 -0.046044733 0.69300002
0.031884857 -0.046111178 0.69400001
-0.14585567 -0.042926047 0.6936667
-0.14276215 -0.042314503 0.69400001
-0.13991466 -0.042314503 0.69400001
-0.13611798 -0.043262988 0.69400001
-0.1334625 -0.042375471 0.69499999
-0.1306109 -0.043326009 0.69499999
-0.013694939 -0.044276547 0.69499999
-0.010812127 -0.044149134 0.69300002
-0.0079917209 -0.044276547 0.69499999
0.022393173 -0.04421284 0.69400001
0.025258176 -0.042344987 0.69449997
0.028995512 -0.042253532 0.69300002
0.031838916 -0.042253532 0.69300002
0.034415971 -0.043579146 0.69400001
0.037634015 -0.044276547 0.69499999
-0.12775929 -0.0404744 0.69499999
-0.12490767 -0.0404744 0.69499999
-0.12170483 -0.040357929 0.69300002
-0.11886144 -0.040357929 0.69300002
-0.11635285 -0.0404744 0.69499999
-0.080232471 -0.0404744 0.69499999
0.020524366 -0.0404744 0.69499999
0.022425437 -0.0404744 0.69499999
0.035732947 -0.0404744 0.69499999
-0.15057217 -0.036672253 0.69499999
-0.13981317 -0.038490079 0.69350004
-0.13516882 -0.038517829 0.69400001
-0.12928724 -0.038462326 0.69300002
-0.12395714 -0.038573328 0.69499999
-0.12188045 -0.038517829 0.69400001
-0.11791363 -0.036566723 0.69300002
-0.11601803 -0.036566723 0.69300002
-0.10859209 -0.036619488 0.69400001
-0.10669375 -0.036619488 0.69400001
0.019532269 -0.037542276 0.69350004
0.022393173 -0.038517829 0.69400001
0.025223175 -0.038490079 0.69350004
0.029006314 -0.037528399 0.69325006
0.031861886 -0.037542276 0.69350004
0.033783194 -0.036619488 0.69400001
-0.14867108 -0.034771185 0.69499999
-0.14560968 -0.034721155 0.69400001
-0.14191449 -0.03474617 0.69449997
-0.13896549 -0.034721155 0.69400001
-0.13686964 -0.034671124 0.69300002
-0.13497405 -0.034671124 0.69300002
-0.12757546 -0.034721155 0.69400001
-0.12463878 -0.034696139 0.69350004
-0.12188045 -0.034721155 0.69400001
-0.11523764 -0.034721155 0.69400001
-0.10859209 -0.034721155 0.69400001
-0.10684749 -0.034771185 0.69499999
0.0195309 -0.034696139 0.69350004
0.025242044 -0.034721155 0.69400001
-0.14867108 -0.03287011 0.69499999
-0.14571527 -0.032846466 0.69449997
-0.14255646 -0.032775521 0.69300002
-0.13991329 -0.03187228 0.69400001
-0.13536358 -0.030969037 0.69499999
-0.1334625 -0.030969037 0.69499999
-0.12739164 -0.032775521 0.69300002
-0.12472659 -0.03187228 0.69400001
-0.12110554 -0.030969037 0.69499999
-0.11825392 -0.030969037 0.69499999
-0.11601803 -0.030879918 0.69300002
-0.11222682 -0.030879918 0.69300002
-0.11049043 -0.030924477 0.69400001
-0.10352985 -0.032189127 0.69400001
-0.10036596 -0.032189127 0.69400001
-0.097272098 -0.031895928 0.69449997
-0.094761588 -0.031587873 0.69466662
0.016698159 -0.03187228 0.69400001
0.018569702 -0.030879918 0.69300002
0.022360906 -0.030879918 0.69300002
0.025223175 -0.030902198 0.69350004
0.02870656 -0.032173362 0.6936667
0.031884857 -0.032822818 0.69400001
0.033831872 -0.03287011 0.69499999
-0.13916573 -0.029067965 0.69499999
-0.13611798 -0.029026141 0.69400001
-0.1334625 -0.029067965 0.69499999
-0.12481713 -0.028096516 0.69449997
-0.12188045 -0.027127804 0.69400001
-0.11894651 -0.027108259 0.69350004
-0.11523627 -0.027127804 0.69400001
-0.11222682 -0.027088715 0.69300002
-0.1091718 -0.027746642 0.6936667
-0.10669375 -0.028075606 0.69400001
-0.10479541 -0.027127804 0.69400001
-0.099100411 -0.027127804 0.69400001
-0.097787254 -0.028378509 0.6936667
-0.094355926 -0.027127802 0.69400001
-0.091441125 -0.028056061 0.69350004
-0.089737833 -0.029067965 0.69499999
0.014821148 -0.027166892 0.69499999
0.025223175 -0.027108259 0.69350004
0.029943312 -0.028984318 0.69300002
0.031930801 -0.029067965 0.69499999
-0.12775929 -0.02526582 0.69499999
-0.12567712 -0.025229467 0.69400001
-0.11412243 -0.025193114 0.69300002
-0.10946166 -0.02521129 0.69350004
-0.10654002 -0.025193114 0.69300002
-0.10464441 -0.025193114 0.69300002
0.028088184 -0.025229467 0.69400001
-0.12757546 -0.021432793 0.69400001
-0.12490767 -0.023364747 0.69499999
-0.12170483 -0.023297511 0.69300002
-0.11791363 -0.023297511 0.69300002
-0.11618543 -0.02333113 0.69400001
-0.10304534 -0.022414211 0.69499999
-0.10008527 -0.022390366 0.69424999
-0.09720207 -0.022381961 0.69400001
-0.094320916 -0.022374924 0.69374996
-0.091375202 -0.023297511 0.69300002
-0.089737833 -0.023364747 0.69499999
0.013830697 -0.022349712 0.69300002
0.022360906 -0.023297511 0.69300002
0.024291508 -0.02333113 0.69400001
0.028047713 -0.02140191 0.69300002
-0.12472932 -0.019534456 0.69400001
-0.11635285 -0.019562602 0.69499999
0.013849286 -0.019534456 0.69400001
0.025223175 -0.019520383 0.69350004
0.028128656 -0.019562602 0.69499999
-0.12757546 -0.017636118 0.69400001
-0.1248185 -0.015749119 0.69449997
-0.11791363 -0.015715105 0.69300002
-0.11635285 -0.015760459 0.69499999
0.011003149 -0.017636118 0.69400001
0.01352096 -0.016354531 0.69333339
0.016674099 -0.015715105 0.69300002
0.019517504 -0.015715105 0.69300002
0.022393173 -0.015737781 0.69400001
0.025259545 -0.015749119 0.69449997
0.028047713 -0.017610706 0.69300002
-0.12757546 -0.013839445 0.69400001
-0.11618543 -0.013839445 0.69400001
0.0091048116 -0.013839445 0.69400001
0.020465303 -0.013819504 0.69300002
0.024256505 -0.013819504 0.69300002
-0.13023187 -0.010686108 0.69466662
-0.12748355 -0.010984704 0.69350004
-0.12567712 -0.011941108 0.69400001
-0.11911802 -0.010050005 0.69449997
-0.042211026 -0.010057241 0.69499999
-0.038408879 -0.010057241 0.69499999
0.010046053 -0.010983336 0.69350004
0.019853123 -0.011303504 0.6936667
0.022393171 -0.010993307 0.69400001
0.024936864 -0.010681284 0.69433331
-0.11825392 -0.0062550963 0.69499999
-0.052515365 -0.0062370962 0.69300002
-0.049743641 -0.006246096 0.69400001
-0.046930604 -0.0062505961 0.69449997
-0.044112097 -0.0062550963 0.69499999
0.0072064749 -0.006246096 0.69400001
0.018569702 -0.008132698 0.69300002
0.022425437 -0.0081561683 0.69499999
0.025239309 -0.0071966322 0.69400001
0.028128656 -0.0062550963 0.69499999
0.0072168587 -0.0043540234 0.69499999
0.020465303 -0.0043414943 0.69300002
0.024291508 -0.0043477588 0.69400001
-0.053617459 -0.0024529509 0.69499999
0.0053157858 -0.0024529509 0.69499999
0.022425437 -0.00055187842 0.69499999
-0.091375202 0.0013453115 0.69300002
-0.061221749 0.001349194 0.69499999
-0.038408879 0.001349194 0.69499999
0.0034098001 0.0013472527 0.69400001
0.022360906 0.0013453115 0.69300002
0.024326509 0.001349194 0.69499999
-0.09353999 0.0051513389 0.69499999
-0.091375202 0.0032409132 0.69300002
-0.088342249 0.0038792808 0.69400001
-0.085812047 0.0041947584 0.69400001
-0.08296454 0.0032455898 0.69400001
0.004672809 0.00387681 0.6936667
0.019238209 0.0038808396 0.69433331
-0.09353999 0.008002948 0.69499999
-0.091507055 0.0079914322 0.69400001
-0.087710388 0.007990065 0.69400001
-0.085812047 0.0070422641 0.69400001
-0.083792798 0.0070321169 0.69300002
-0.080059312 0.0079863593 0.69350004
0.013861317 0.0089470427 0.69449997
0.016722221 0.0070524113 0.69499999
-0.11825392 0.010854556 0.69499999
-0.093405396 0.010838939 0.69400001
-0.080117032 0.010838939 0.69400001
-0.034556944 0.010838939 0.69400001
-0.11903295 0.012737276 0.69400001
-0.11222682 0.014614524 0.69300002
-0.10843562 0.014614524 0.69300002
-0.091638908 0.013706164 0.69499999
-0.088628635 0.013681856 0.69375002
-0.082647242 0.014002834 0.69400001
-0.034606736 0.014656701 0.69499999
-0.088787302 0.016557774 0.69499999
-0.11911802 0.020345271 0.69449997
-0.11635285 0.020359918 0.69499999
-0.10654002 0.018405728 0.69300002
-0.10416263 0.019696932 0.69400001
-0.10004958 0.020330623 0.69400001
-0.091638908 0.018458845 0.69499999
-0.088787302 0.018458845 0.69499999
-0.053463165 0.018405728 0.69300002
-0.032705661 0.018458845 0.69499999
-0.12205607 0.02226099 0.69499999
-0.11903295 0.02222896 0.69400001
-0.11428711 0.02222896 0.69400001
-0.09720207 0.02222896 0.69400001
-0.095441051 0.02226099 0.69499999
-0.10962086 0.025094531 0.69449997
-0.10661688 0.025057716 0.69350004
-0.10377143 0.025057716 0.69350004
-0.10015804 0.025103908 0.69474995
-0.097342126 0.026063135 0.69499999
-0.10669375 0.02982231 0.69400001
-0.10392038 0.027944092 0.69449997
-0.10012098 0.027944092 0.69449997
-0.097132042 0.028851658 0.69350004
-0.091638908 0.029865282 0.69499999
-0.088787302 0.029865282 0.69499999
-0.084985152 0.028914746 0.69499999
-0.082608759 0.029175207 0.6936667
-0.079167865 0.02982231 0.69400001
-0.076430336 0.029865282 0.69499999
-0.074529253 0.029865282 0.69499999
-0.10392175 0.0317435 0.69449997
-0.099976808 0.031697795 0.69350004
-0.082133554 0.031766355 0.69499999
-0.079053789 0.03167494 0.69300002
-0.076320365 0.031720646 0.69400001
-0.074529253 0.031766355 0.69499999
-0.10304534 0.033667427 0.69499999
-0.091638908 0.033667427 0.69499999
-0.088659555 0.033618987 0.69400001
-0.084985152 0.033667427 0.69499999
-0.079111516 0.033594765 0.69350004
-0.076430336 0.035568498 0.69499999
-0.073420607 0.035491731 0.69350004
-0.07062535 0.034568153 0.69400001
-0.068126328 0.0349016 0.69433331
-0.065023899 0.03461796 0.69499999
-0.076320365 0.037415661 0.69400001
-0.074314788 0.037361749 0.69300002
-0.07062535 0.037415661 0.69400001
-0.067825988 0.037442617 0.69449997
-0.065023899 0.037469573 0.69499999
-0.061045572 0.048735358 0.69300002
-0.13212933 -0.12465737 0.69800001
-0.12258293 -0.12465737 0.69800001
-0.13403861 -0.12274809 0.69800001
-0.11859423 -0.11875915 0.69700003
-0.11494582 -0.11702025 0.69800001
-0.14167573 -0.11511098 0.69800001
-0.11461646 -0.11478114 0.69599998
0.043524303 -0.11511098 0.69800001
-0.143585 -0.11129241 0.69800001
-0.11112726 -0.1132017 0.69800001
-0.11096805 -0.11113297 0.69700003
-0.051865216 -0.11113297 0.69700003
-0.048052125 -0.11303952 0.69700003
-0.040367953 -0.11287733 0.69599998
-0.038519412 -0.11303952 0.69700003
0.041555405 -0.11208487 0.69700003
0.043461949 -0.11113297 0.69700003
0.046320394 -0.11208487 0.69700003
0.049111012 -0.11287733 0.69599998
0.051161416 -0.11224706 0.69800001
-0.10730871 -0.10938314 0.69800001
0.039648861 -0.10922644 0.69700003
0.046255302 -0.10906972 0.69599998
0.049181581 -0.10922644 0.69700003
0.05204276 -0.10922644 0.69700003
-0.14317358 -0.106214 0.69599998
-0.10700122 -0.10716591 0.69599998
-0.10349015 -0.10556458 0.69800001
0.037742317 -0.10541334 0.69700003
0.041555408 -0.10731989 0.69700003
0.043524303 -0.10747387 0.69800001
0.046661217 -0.10673661 0.69733334
0.049181581 -0.10541334 0.69700003
0.051161416 -0.10556458 0.69800001
-0.013754055 -0.10365531 0.69800001
0.039648861 -0.1035068 0.69700003
0.043399591 -0.1033583 0.69599998
0.046323128 -0.1035068 0.69700003
-0.13976644 -0.10174602 0.69800001
-0.099528804 -0.10064699 0.69700003
-0.061397929 -0.10160026 0.69700003
-0.01373435 -0.099693716 0.69700003
-0.011810835 -0.099550672 0.69599998
-0.0042016334 -0.099693716 0.69700003
-0.0022983826 -0.10174602 0.69800001
0.035887189 -0.10174602 0.69800001
0.037688166 -0.099550672 0.69599998
0.043399591 -0.099550672 0.69599998
0.045303397 -0.099550672 0.69599998
0.049181581 -0.10064699 0.69700003
-0.095853031 -0.097927473 0.69800001
-0.025209725 -0.096018188 0.69800001
-0.01948189 -0.097927473 0.69800001
-0.017522259 -0.09764687 0.69599998
-0.0041956049 -0.09764687 0.69599998
0.033977911 -0.096972831 0.69800001
0.041615028 -0.096018188 0.69800001
0.043399591 -0.09764687 0.69599998
0.045433581 -0.096018188 0.69800001
0.049252141 -0.096018188 0.69800001
0.051161416 -0.097927473 0.69800001
-0.13012677 -0.094994769 0.69749999
-0.094695143 -0.094859943 0.6965
-0.027080154 -0.095880628 0.69700003
-0.0061081764 -0.095880628 0.69700003
-0.0022983826 -0.094108917 0.69800001
0.03388055 -0.093839258 0.69599998
0.043399591 -0.093839258 0.69599998
0.046594303 -0.094518803 0.69633335
0.049252141 -0.094108917 0.69800001
-0.12413549 -0.090031639 0.69599998
-0.092034474 -0.092199631 0.69800001
-0.089996077 -0.090160996 0.69700003
-0.0073792045 -0.091432936 0.69700003
-0.0042016334 -0.092067547 0.69700003
-0.0022983826 -0.092199631 0.69800001
0.032068633 -0.090290353 0.69800001
0.034832455 -0.09098354 0.69599998
0.041495785 -0.091935448 0.69599998
0.043461949 -0.092067547 0.69700003
0.047275037 -0.091115639 0.69700003
0.049252141 -0.090290353 0.69800001
-0.12258293 -0.088381082 0.69800001
-0.088978246 -0.088191152 0.6965
-0.008026218 -0.088381082 0.69800001
-0.0042076614 -0.088381082 0.69800001
0.032022689 -0.088254459 0.69700003
0.03388055 -0.088127837 0.69599998
0.037742317 -0.088254459 0.69700003
0.040631942 -0.088317767 0.69749999
0.043399591 -0.088127837 0.69599998
0.046355676 -0.088317767 0.69749999
-0.12032788 -0.086224027 0.69599998
-0.068925075 -0.084320217 0.69599998
-0.063395299 -0.086471796 0.69800001
-0.0070570656 -0.084380791 0.6965
-0.0042076614 -0.084562518 0.69800001
-0.0022950899 -0.086347915 0.69700003
0.030116145 -0.084441371 0.69700003
0.041555408 -0.084441371 0.69700003
0.046639521 -0.085075974 0.69700003
-0.076650277 -0.082534827 0.69700003
-0.00800322 -0.082416408 0.69599998
-0.0022983826 -0.082653239 0.69800001
0.028169129 -0.082416408 0.69599998
0.047207206 -0.082416408 0.69599998
-0.1128746 -0.080628283 0.69700003
-0.0061081764 -0.080628283 0.69700003
-0.0042016334 -0.080628283 0.69700003
0.026303058 -0.078721739 0.69700003
0.028209604 -0.080628283 0.69700003
0.030072935 -0.080512598 0.69599998
0.041495785 -0.080512598 0.69599998
0.043399591 -0.080512598 0.69599998
0.046662133 -0.080031328 0.69733334
-0.10906151 -0.075860552 0.69700003
-0.078556821 -0.076815195 0.69700003
-0.0061081764 -0.076815195 0.69700003
-0.0042016334 -0.076815195 0.69700003
0.028209604 -0.076815195 0.69700003
0.041495785 -0.076704979 0.69599998
0.043461949 -0.076815195 0.69700003
0.045433581 -0.075016126 0.69800001
-0.10349015 -0.073106848 0.69800001
-0.1012898 -0.072897367 0.69599998
-0.0022934433 -0.073901646 0.6965
0.026303058 -0.074908651 0.69700003
0.028169129 -0.072897367 0.69599998
0.03578436 -0.072897367 0.69599998
0.037742317 -0.073002115 0.69700003
0.040660389 -0.073106848 0.69800001
-0.10349015 -0.071197569 0.69800001
-0.10041067 -0.070092663 0.6965
-0.091770761 -0.070993565 0.69599998
-0.0042076614 -0.069288291 0.69800001
-0.002291797 -0.070993565 0.69599998
0.022522239 -0.071197569 0.69800001
0.025313415 -0.069089748 0.69599998
0.040900931 -0.069790535 0.69666672
0.043461949 -0.071095571 0.69700003
-0.099528804 -0.067282483 0.69700003
-0.09748219 -0.067185946 0.69599998
-0.0099070286 -0.067185946 0.69599998
-0.0041956049 -0.067185946 0.69599998
-0.00038854664 -0.067282483 0.69700003
0.022457704 -0.067185946 0.69599998
-0.009921263 -0.063469395 0.69700003
-0.0042016329 -0.064424038 0.69700003
-0.002291797 -0.065282136 0.69599998
0.020612961 -0.063560456 0.69800001
0.022489972 -0.065375939 0.69700003
0.040900931 -0.064710073 0.69666672
-0.013714644 -0.061474521 0.69599998
-0.010873167 -0.061562847 0.69700003
-0.0061081764 -0.061562851 0.69700003
-0.0041956049 -0.061474521 0.69599998
-0.0003891041 -0.061651174 0.69800001
0.022489972 -0.061562851 0.69700003
0.039705746 -0.061651174 0.69800001
-0.076540299 -0.059570715 0.69599998
-0.028032055 -0.059656307 0.69700003
-0.025173608 -0.059656307 0.69700003
-0.022329118 -0.059699103 0.69749999
-0.015640892 -0.058701668 0.69700003
-0.0013431859 -0.058701668 0.69700003
0.020612961 -0.059741896 0.69800001
0.024396515 -0.057749767 0.69700003
0.037796468 -0.057832621 0.69800001
0.039648861 -0.059656307 0.69700003
-0.048121065 -0.054014061 0.69800001
-0.042271759 -0.055763096 0.69599998
-0.017572612 -0.055923339 0.69800001
-0.0013437433 -0.0549687 0.69800001
0.028169129 -0.055763096 0.69599998
0.039591976 -0.055763096 0.69599998
-0.055598415 -0.051955484 0.69599998
-0.053848904 -0.052104782 0.69800001
-0.049886994 -0.05385929 0.69599998
-0.016570356 -0.052907385 0.69599998
-0.00800322 -0.05385929 0.69599998
-0.0041956049 -0.05385929 0.69599998
-0.00038854664 -0.052030135 0.69700003
-0.14698119 -0.048147865 0.69599998
-0.14126977 -0.048147865 0.69599998
-0.13936596 -0.048147865 0.69599998
-0.13680378 -0.048251636 0.69749999
-0.073896334 -0.048286226 0.69800001
-0.069024108 -0.050123595 0.69700003
-0.065117456 -0.050051678 0.69599998
-0.01948189 -0.048286226 0.69800001
-0.017572612 -0.050195508 0.69800001
-0.00038854664 -0.050123595 0.69700003
0.02058343 -0.048217047 0.69700003
0.022457704 -0.048147865 0.69599998
0.025313415 -0.050051678 0.69599998
-0.14242464 -0.046310503 0.69700003
-0.13956621 -0.046310507 0.69700003
-0.13680515 -0.046343729 0.69749999
0.022522239 -0.046376947 0.69800001
0.034832455 -0.046244059 0.69599998
0.037796468 -0.046376947 0.69800001
-0.14909892 -0.043450691 0.69700003
-0.13365453 -0.044340253 0.69599998
-0.12717299 -0.043450005 0.69700003
-0.084397361 -0.044467669 0.69800001
-0.08248809 -0.044467669 0.69800001
-0.079865418 -0.043788772 0.69733334
-0.016606752 -0.044435814 0.69749999
-0.0060994122 -0.044340253 0.69599998
-0.0042016334 -0.044403963 0.69700003
-0.0022950899 -0.044403963 0.69700003
0.019947914 -0.043767538 0.69700003
0.022489972 -0.042497419 0.69700003
0.035835776 -0.042497419 0.69700003
0.039705746 -0.044467669 0.69800001
-0.15122211 -0.040649112 0.69800001
-0.11461646 -0.040532634 0.69599998
-0.082369909 -0.040590875 0.69700003
-0.078556821 -0.040590875 0.69700003
-0.076760247 -0.040649112 0.69800001
0.01865009 -0.040532634 0.69599998
-0.15100546 -0.038684335 0.69700003
-0.13746215 -0.038628828 0.69599998
-0.12699121 -0.038628828 0.69599998
-0.12032788 -0.038628828 0.69599998
-0.11842407 -0.038628828 0.69599998
-0.11573441 -0.038684335 0.69700003
-0.11303654 -0.038739834 0.69800001
-0.10524842 -0.036777787 0.69700003
-0.10319361 -0.036725022 0.69599998
-0.10158087 -0.036830552 0.69800001
0.016746281 -0.036725022 0.69599998
0.018676886 -0.038684335 0.69700003
0.034856796 -0.037704676 0.6965
-0.15122211 -0.033011995 0.69800001
-0.12032788 -0.034821212 0.69599998
-0.11859423 -0.034871247 0.69700003
-0.10539942 -0.034921277 0.69800001
-0.10349015 -0.034921277 0.69800001
-0.10158087 -0.034921277 0.69800001
-0.090125196 -0.033011995 0.69800001
0.016746281 -0.034821212 0.69599998
0.028169129 -0.034821212 0.69599998
0.03102484 -0.034821212 0.69599998
0.033977911 -0.034921277 0.69800001
-0.14222167 -0.031013597 0.69599998
-0.13746215 -0.031013597 0.69599998
-0.1308921 -0.031035878 0.6965
-0.12708312 -0.031035878 0.6965
-0.10906152 -0.031058159 0.69700003
-0.10612619 -0.031035878 0.6965
-0.099528804 -0.031058159 0.69700003
-0.093674578 -0.032917406 0.69599998
-0.091310143 -0.031708527 0.69733334
0.014874462 -0.032033712 0.69749999
0.03102484 -0.031013597 0.69599998
-0.14232454 -0.029130703 0.6965
-0.13079882 -0.029109789 0.69599998
-0.12749143 -0.027879676 0.69700003
-0.089866951 -0.027205981 0.69599998
0.014842473 -0.029109789 0.69599998
0.028169129 -0.027205981 0.69599998
0.031092389 -0.027264616 0.69749999
0.033929233 -0.029151617 0.69700003
-0.13212933 -0.025374884 0.69800001
-0.12984692 -0.025302174 0.69599998
0.012938665 -0.025302174 0.69599998
0.031070784 -0.025338529 0.69700003
-0.12984692 -0.021494558 0.69599998
-0.12812695 -0.023431985 0.69700003
-0.11478114 -0.022480082 0.69700003
-0.11196044 -0.022487119 0.69725001
-0.10921799 -0.021556325 0.69800001
-0.10588485 -0.022160957 0.69700003
-0.089996077 -0.021525443 0.69700003
0.011034857 -0.021494558 0.69599998
0.012938665 -0.023398366 0.69599998
0.026265319 -0.023398366 0.69599998
0.028209604 -0.023431985 0.69700003
0.030116145 -0.021525443 0.69700003
-0.12812695 -0.019618899 0.69700003
0.011066567 -0.019647047 0.69800001
-0.13003349 -0.017712357 0.69700003
-0.12812695 -0.015805813 0.69700003
-0.11478115 -0.017712357 0.69700003
-0.10349015 -0.017737769 0.69800001
-0.10062623 -0.017737769 0.69800001
-0.021391168 -0.017737769 0.69800001
0.010089514 -0.016747747 0.6965
0.028169129 -0.015783135 0.69599998
0.030072935 -0.017686943 0.69599998
-0.13089347 -0.013889298 0.6965
-0.11478115 -0.01389927 0.69700003
-0.037606906 -0.012959586 0.69774997
-0.034731224 -0.012954601 0.69749999
-0.03186867 -0.01390924 0.69749999
-0.028033424 -0.01389927 0.69700003
-0.02513749 -0.013879327 0.69599998
-0.022313794 -0.01389927 0.69700003
-0.01948189 -0.013919211 0.69800001
0.0072480105 -0.013919211 0.69800001
0.028169129 -0.013879327 0.69599998
0.030072935 -0.013879327 0.69599998
-0.13594788 -0.010100653 0.69800001
-0.13403861 -0.010100653 0.69800001
-0.13175072 -0.011975519 0.69599998
-0.12050078 -0.011992726 0.69700003
-0.11685509 -0.010100653 0.69800001
-0.04621179 -0.010100653 0.69800001
-0.044239044 -0.010086183 0.69700003
-0.040425956 -0.010086183 0.69700003
-0.036560338 -0.010071712 0.69599998
-0.034656528 -0.010071712 0.69599998
-0.031846508 -0.010086183 0.69700003
-0.02805285 -0.010093418 0.69749999
0.0072376267 -0.010086183 0.69700003
0.0091441702 -0.011992726 0.69700003
0.026303058 -0.011992726 0.69700003
0.028169129 -0.010071712 0.69599998
-0.12717503 -0.0081796395 0.69700003
-0.12431385 -0.0072250003 0.69700003
-0.12136623 -0.0072211842 0.6965
-0.11859423 -0.0081796395 0.69700003
-0.11668769 -0.0062730969 0.69700003
-0.058622099 -0.0062820967 0.69800001
-0.055678304 -0.0062730969 0.69700003
-0.052894264 -0.0081913751 0.69800001
-0.046145584 -0.0081796395 0.69700003
-0.042947769 -0.0075411252 0.69666672
-0.038574677 -0.0062820967 0.69800001
0.0053387317 -0.0062820967 0.69800001
0.0091310497 -0.0081679039 0.69599998
0.020553896 -0.0081679039 0.69599998
0.026303058 -0.0081796395 0.69700003
-0.052818485 -0.0043665534 0.69700003
-0.050030351 -0.0043728179 0.69800001
0.026265319 -0.0043602884 0.69599998
-0.092034474 -0.00055426062 0.69800001
-0.089041442 -0.00055346655 0.69700003
-0.063349888 -0.0015071352 0.69749999
-0.061309837 -0.0024564802 0.69599998
-0.058454126 -0.0024564802 0.69599998
-0.055598415 -0.0024564802 0.69599998
-0.0517908 -0.0024564802 0.69599998
-0.049004029 -0.0024600097 0.69700003
-0.04621179 -0.0024635391 0.69800001
-0.042393234 -0.0024635391 0.69800001
-0.040454954 -0.0015071352 0.69749999
-0.037579272 -0.0015062528 0.69725001
0.0043764436 -0.0015081058 0.69700003
0.025313415 -0.0015045763 0.69599998
-0.093809173 0.0013530767 0.69700003
-0.08415553 0.0013511353 0.69599998
-0.063213646 0.0013511353 0.69599998
-0.058454126 0.0013511353 0.69599998
-0.055598415 0.0013511353 0.69599998
-0.052855693 0.0013540473 0.69749999
-0.050030351 0.0013550179 0.69800001
-0.040425956 0.0013530767 0.69700003
-0.036560338 0.0013511353 0.69599998
-0.03475612 0.0013550179 0.69800001
-0.093809173 0.0032596199 0.69700003
-0.079453737 0.0042091855 0.6965
-0.076760247 0.0051735751 0.69800001
-0.061397929 0.0042128917 0.69700003
-0.05855877 0.0042133769 0.69725001
-0.055718243 0.0042152298 0.69749999
-0.037620038 0.0032642963 0.69800001
0.0015201746 0.0032642963 0.69800001
0.0034196265 0.0051587508 0.69599998
0.02058343 0.0051661632 0.69700003
0.022489972 0.0032596199 0.69700003
-0.078613177 0.0080324188 0.69749999
-0.036665399 0.0089921318 0.69800001
-0.03475612 0.0089921318 0.69800001
0.0072272425 0.0070625586 0.69599998
0.010096073 0.0089792488 0.69700003
0.016746281 0.0089663658 0.69599998
0.018703682 0.0080374926 0.69800001
-0.12032788 0.010870175 0.69599998
-0.11685509 0.010901411 0.69800001
-0.097762316 0.010901411 0.69800001
-0.095578372 0.010870175 0.69599998
-0.078669526 0.010901411 0.69800001
-0.036560338 0.010870175 0.69599998
-0.03279978 0.010885794 0.69700003
-0.12449221 0.014719968 0.69800001
-0.12240732 0.012792337 0.69700003
-0.11581676 0.012801513 0.69749999
-0.11303654 0.012810689 0.69800001
-0.11009302 0.012801513 0.69749999
-0.10620032 0.014698879 0.69700003
-0.10158087 0.014719968 0.69800001
-0.097762316 0.014719968 0.69800001
-0.094695136 0.013735063 0.69649994
-0.036665399 0.014719968 0.69800001
-0.034656528 0.012773982 0.69599998
-0.032148581 0.014056336 0.69666672
-0.12431386 0.016605422 0.69700003
-0.1062772 0.016617335 0.69749999
-0.093809173 0.016605422 0.69700003
-0.091770761 0.016581597 0.69599998
-0.0851679 0.016593508 0.6965
-0.034706324 0.016605422 0.69700003
-0.03186867 0.016617335 0.69749999
-0.12413549 0.018485405 0.69599998
-0.12223168 0.020389212 0.69599998
-0.10319361 0.018485405 0.69599998
-0.1003379 0.018485405 0.69599998
-0.097552225 0.01945059 0.6965
-0.09469445 0.019451957 0.6965
-0.091770761 0.020389212 0.69599998
-0.088978246 0.02040386 0.6965
-0.085290179 0.018525247 0.69749999
-0.031544436 0.019793672 0.69733334
-0.028986694 0.018511966 0.69700003
-0.12449221 0.022357082 0.69800001
-0.11652026 0.02229302 0.69599998
-0.09394376 0.022357082 0.69800001
-0.092034474 0.022357082 0.69800001
-0.088979617 0.022309035 0.6965
-0.12449221 0.026175639 0.69800001
-0.12149795 0.025193559 0.69725001
-0.11876438 0.026175639 0.69800001
-0.11279362 0.025167484 0.6965
-0.09748219 0.02419683 0.69599998
-0.09503442 0.025490122 0.69666672
-0.091013908 0.02520225 0.69749999
-0.088767178 0.025514213 0.69733334
-0.085169263 0.026119387 0.6965
-0.082369909 0.026138138 0.69700003
-0.11112726 0.029039558 0.69800001
-0.10906152 0.028997954 0.69700003
-0.10700122 0.028004445 0.69599998
-0.094694458 0.028976467 0.69650006
-0.091770761 0.028004445 0.69599998
-0.089106001 0.0280648 0.69749999
-0.086182997 0.028044682 0.69700003
-0.080463365 0.028044682 0.69700003
-0.072837189 0.029951228 0.69700003
-0.055758186 0.029994197 0.69800001
-0.10730871 0.031903476 0.69800001
-0.09748219 0.031812061 0.69599998
-0.094898395 0.031903476 0.69800001
-0.091770761 0.031812061 0.69599998
-0.088979617 0.031834915 0.6965
-0.085107431 0.031812061 0.69599998
-0.072837189 0.03185777 0.69700003
-0.071032412 0.031903476 0.69800001
-0.10524842 0.033764314 0.69700003
-0.1003379 0.03371587 0.69599998
-0.097622253 0.033764314 0.69700003
-0.094762444 0.033764314 0.69700003
-0.092034474 0.035722032 0.69800001
-0.08891505 0.035619676 0.69599998
-0.085107431 0.035619676 0.69599998
-0.082251728 0.034667775 0.69599998
-0.079396009 0.035619676 0.69599998
-0.067021258 0.03371587 0.69599998
-0.092034474 0.037631311 0.69800001
-0.08891505 0.037523486 0.69599998
-0.085107431 0.037523486 0.69599998
-0.082369909 0.037577398 0.69700003
-0.079396009 0.037523486 0.69599998
-0.076760247 0.041449867 0.69800001
-0.073817953 0.040451374 0.69725001
-0.069926493 0.040408205 0.69650006
-0.067213856 0.039540589 0.69800001
-0.071032412 0.043359146 0.69800001
-0.057502225 0.048946328 0.69599998
-0.1276305 -0.12683862 0.69949996
-0.13825215 -0.12118505 0.69999999
-0.12084654 -0.12292395 0.699
-0.11893453 -0.12101193 0.699
0.041793887 -0.1175232 0.70099998
0.043711368 -0.1175232 0.70099998
-0.11352237 -0.11560572 0.70099998
0.041674647 -0.1152759 0.699
0.046454679 -0.1152759 0.699
-0.1096874 -0.11177074 0.70099998
-0.050245374 -0.11368823 0.70099998
-0.036770456 -0.11352605 0.69999999
-0.034805913 -0.11145186 0.699
0.039847955 -0.1126484 0.70050001
0.047410689 -0.11145186 0.699
0.049322702 -0.11145186 0.699
0.05318474 -0.11248896 0.69949996
0.055216279 -0.11177074 0.70099998
0.037904765 -0.10969656 0.69999999
0.055058744 -0.10953985 0.699
-0.10555042 -0.10762783 0.699
-0.10201745 -0.10601829 0.70099998
-0.03107053 -0.10793578 0.70099998
0.037000172 -0.10697703 0.70099998
0.039762631 -0.10762783 0.699
0.049322702 -0.10762783 0.699
0.052228734 -0.10674744 0.69949996
0.055216279 -0.10601829 0.70099998
-0.14187869 -0.10380381 0.699
-0.1017264 -0.10380381 0.699
-0.061750282 -0.10410081 0.70099998
-0.015685773 -0.10380381 0.699
-0.010912854 -0.10387806 0.69949996
-0.0071019721 -0.10410081 0.70099998
-0.00039077643 -0.10218333 0.70099998
0.034123946 -0.10218333 0.70099998
0.037904765 -0.10395231 0.69999999
0.049322702 -0.10380381 0.699
0.051996034 -0.1027739 0.70066667
-0.13805465 -0.099979773 0.699
-0.098042428 -0.1001228 0.69999999
-0.061662193 -0.1001228 0.69999999
-0.029069869 -0.10093579 0.699
-0.015708214 -0.1001228 0.69999999
-0.0023016755 -0.099979773 0.699
0.035938602 -0.099979773 0.699
0.05130801 -0.1001228 0.69999999
-0.13614266 -0.098067768 0.699
-0.13250791 -0.096293308 0.69999999
-0.061750282 -0.098348357 0.70099998
-0.013813169 -0.098348357 0.70099998
-0.011861744 -0.096155748 0.699
-0.0042136894 -0.096155748 0.699
-0.0016669043 -0.097615659 0.7003333
0.032206461 -0.097389609 0.70099998
0.04358666 -0.096155748 0.699
0.0523034 -0.097320832 0.70050001
-0.09229818 -0.094378568 0.69999999
-0.011878714 -0.094378568 0.69999999
-0.00039077643 -0.094513394 0.70099998
0.032160521 -0.094378568 0.69999999
0.05130801 -0.094378568 0.69999999
-0.12762913 -0.091440395 0.69949996
-0.090512544 -0.092595905 0.70099998
-0.088342302 -0.09041971 0.699
-0.015708214 -0.092463814 0.69999999
-0.009963965 -0.091506436 0.69999999
-0.00039049771 -0.091572478 0.70050001
0.034026589 -0.092331722 0.699
0.045498669 -0.092331722 0.699
0.049463823 -0.092595905 0.70099998
0.051381305 -0.090678416 0.70099998
-0.086430289 -0.088507697 0.699
-0.0023016755 -0.088507697 0.699
0.030288976 -0.088760935 0.70099998
0.049463823 -0.088760935 0.70099998
-0.12206323 -0.085822761 0.70050001
-0.082724437 -0.085762188 0.69999999
-0.07113418 -0.084683672 0.699
-0.0099497316 -0.086595684 0.699
-0.0013478723 -0.085824132 0.70050001
0.028331021 -0.085762188 0.69999999
0.049393263 -0.085760824 0.69999999
-0.11893453 -0.082771651 0.699
-0.082724437 -0.082890064 0.69999999
-0.0023082609 -0.081090994 0.70099998
0.026454007 -0.082049735 0.70099998
0.049393263 -0.081931323 0.69999999
-0.11527517 -0.080975316 0.69999999
-0.11319848 -0.078947626 0.699
-0.084639184 -0.080975316 0.69999999
-0.078782231 -0.078947626 0.699
-0.0080434661 -0.079961471 0.69949996
-0.0023016755 -0.078947626 0.699
0.049393263 -0.079060569 0.69999999
-0.11160488 -0.077256024 0.70099998
-0.088468686 -0.075231068 0.69999999
-0.0013459473 -0.076133341 0.69949996
0.025476396 -0.076242179 0.70050001
0.046841174 -0.076506652 0.69999999
-0.10673567 -0.073368683 0.70050001
-0.090383433 -0.073316321 0.69999999
-0.006125703 -0.073211581 0.699
-0.00039077643 -0.073421054 0.70099998
0.025440026 -0.073263951 0.69949996
0.04358666 -0.073211581 0.699
-0.10201745 -0.069586083 0.70099998
-0.094078347 -0.069387555 0.699
-0.07900764 -0.069586083 0.70099998
-0.0061344667 -0.071401574 0.69999999
-0.0010273712 -0.070091069 0.69966668
0.022586772 -0.069486819 0.69999999
0.045563761 -0.071401574 0.69999999
-0.095990352 -0.067475542 0.699
0.043649014 -0.067572072 0.69999999
0.045628853 -0.067668602 0.70099998
-0.0099497316 -0.06556353 0.699
-0.0061344667 -0.063742578 0.69999999
-0.00038966152 -0.06556353 0.699
0.0015245302 -0.063742578 0.69999999
0.020701554 -0.06575112 0.70099998
0.043649014 -0.063742578 0.69999999
-0.0080377171 -0.061739501 0.699
0.020642493 -0.061739501 0.699
0.041793887 -0.061916146 0.70099998
-0.019509802 -0.059827488 0.699
-0.017597787 -0.059827488 0.699
-0.00039021898 -0.057998329 0.69999999
0.0015267081 -0.059998665 0.70099998
0.018757274 -0.059913076 0.69999999
0.040805332 -0.058997128 0.70050001
-0.076077797 -0.055166259 0.70050001
-0.040541954 -0.056003455 0.699
-0.038685203 -0.056083575 0.69999999
-0.019565621 -0.056163695 0.70099998
-0.017597787 -0.054091442 0.699
0.034123946 -0.05424621 0.70099998
0.036973096 -0.054207519 0.70050001
0.040747084 -0.055086143 0.69949996
-0.077090159 -0.052328728 0.70099998
-0.074958205 -0.05217943 0.699
-0.052014038 -0.05217943 0.699
-0.050245374 -0.052328728 0.70099998
-0.019509802 -0.05217943 0.699
0.020642493 -0.05217943 0.699
-0.14995457 -0.048493754 0.70099998
-0.14516085 -0.050411243 0.70099998
-0.14228463 -0.050411243 0.70099998
-0.13442266 -0.048424579 0.69999999
-0.0847601 -0.048493754 0.70099998
-0.082724437 -0.048424579 0.69999999
-0.079966381 -0.048493754 0.70099998
-0.076076433 -0.049417913 0.70050001
-0.073150687 -0.05033933 0.69999999
-0.070563771 -0.049038857 0.69966668
-0.067406438 -0.048424579 0.69999999
-0.064488903 -0.049346 0.69949996
-0.048327889 -0.048493754 0.70099998
0.0015245302 -0.048424579 0.69999999
0.01971465 -0.049381956 0.69999999
0.022554506 -0.050267421 0.699
-0.14974065 -0.046509832 0.69999999
-0.13336927 -0.04647661 0.69949996
-0.13059317 -0.046509832 0.69999999
-0.07517267 -0.046576273 0.70099998
-0.019537712 -0.046509832 0.69999999
-0.00038966152 -0.046443388 0.699
0.020642493 -0.046443388 0.699
-0.12484892 -0.043637708 0.69999999
-0.12197611 -0.04363839 0.69999999
-0.118231 -0.042710818 0.70050001
-0.11543985 -0.042741302 0.70099998
-0.082606263 -0.042619362 0.699
-0.078782231 -0.042619362 0.699
-0.076341935 -0.043955918 0.69999999
-0.073150687 -0.044595081 0.69999999
-0.07123594 -0.044595081 0.69999999
-0.04925216 -0.044626936 0.70050001
-0.046410404 -0.044658788 0.70099998
-0.044492923 -0.044658788 0.70099998
-0.019537712 -0.044595081 0.69999999
0.016842524 -0.044595081 0.69999999
0.018757274 -0.042680334 0.69999999
0.037904765 -0.042680334 0.69999999
-0.11240168 -0.040765584 0.69999999
-0.084639184 -0.040765584 0.69999999
-0.075065434 -0.040765584 0.69999999
0.016818464 -0.040707346 0.699
0.037850615 -0.040707346 0.699
-0.11144567 -0.038850833 0.69999999
-0.1096874 -0.038906336 0.70099998
-0.10393494 -0.038906336 0.70099998
-0.099814393 -0.036883317 0.699
-0.098182492 -0.036988851 0.70099998
-0.078894936 -0.038850833 0.69999999
-0.077090159 -0.038906336 0.70099998
0.014927775 -0.036936086 0.69999999
0.016842524 -0.038850833 0.69999999
0.035938602 -0.038795333 0.699
0.037904765 -0.036936086 0.69999999
-0.15143876 -0.034971308 0.699
-0.099814393 -0.034971308 0.699
-0.097083688 -0.035021335 0.69999999
-0.094212934 -0.035021335 0.69999999
-0.088342302 -0.033059292 0.699
0.014927775 -0.035021335 0.69999999
0.03596431 -0.034040313 0.69949996
-0.14889024 -0.031214114 0.70050001
-0.14570272 -0.031147277 0.699
-0.08859507 -0.031236395 0.70099998
0.034026589 -0.031147277 0.699
-0.14803709 -0.029318912 0.70099998
-0.14570272 -0.029235264 0.699
-0.13844965 -0.027401425 0.70099998
-0.13614266 -0.027323248 0.699
-0.1335613 -0.027381882 0.70050001
-0.1304066 -0.027323248 0.699
-0.088342302 -0.029235264 0.699
0.013003731 -0.028298801 0.69949996
0.034075268 -0.027362337 0.69999999
-0.13844965 -0.025483944 0.70099998
-0.13633741 -0.02544759 0.69999999
-0.13423063 -0.025411237 0.699
-0.088468686 -0.02544759 0.69999999
0.011098277 -0.02544759 0.69999999
0.034075268 -0.02544759 0.69999999
-0.13337064 -0.021602649 0.69949996
-0.1304066 -0.023499221 0.699
-0.10937446 -0.023499221 0.699
-0.10746244 -0.023499221 0.699
-0.019565621 -0.021648973 0.70099998
0.009183527 -0.021618091 0.69999999
0.031523179 -0.022894589 0.69999999
-0.13269721 -0.019731488 0.70099998
-0.1304066 -0.019675193 0.699
-0.11527517 -0.019703342 0.69999999
-0.11240168 -0.01970334 0.69999999
-0.1096874 -0.019731488 0.70099998
-0.10570142 -0.019703342 0.69999999
-0.10378668 -0.019703342 0.69999999
-0.1007704 -0.019675193 0.699
-0.097902372 -0.019675193 0.699
-0.095034346 -0.019675193 0.699
-0.021483107 -0.019731488 0.70099998
-0.019565621 -0.019731488 0.70099998
0.03020256 -0.019675193 0.699
-0.13308306 -0.017141871 0.69966668
-0.1304066 -0.015851166 0.699
-0.1151105 -0.015851166 0.699
-0.11277524 -0.017157903 0.7003333
-0.1096874 -0.017814003 0.70099998
-0.10666017 -0.017788593 0.69999999
-0.028174192 -0.016842555 0.70050001
-0.025300017 -0.016843922 0.70050001
-0.022717834 -0.016503623 0.69966668
-0.019537712 -0.01682985 0.69999999
-0.017622963 -0.017788593 0.69999999
-0.013813169 -0.017814003 0.70099998
-0.011878714 -0.017788593 0.69999999
0.0072687785 -0.017788593 0.69999999
0.0091704084 -0.015851166 0.699
0.03118154 -0.016819879 0.69949996
-0.13432664 -0.012993116 0.69949996
-0.11893453 -0.012027139 0.699
-0.11336043 -0.013959094 0.69999999
-0.042545069 -0.01301169 0.70050001
-0.040541954 -0.012983145 0.699
-0.031960052 -0.012035742 0.69949996
-0.028173508 -0.012052948 0.70050001
-0.025318075 -0.01206155 0.70099998
-0.02145246 -0.012044345 0.69999999
-0.019537712 -0.012044345 0.69999999
-0.016984714 -0.013319932 0.69999999
-0.013813169 -0.013979035 0.70099998
-0.011895684 -0.013979035 0.70099998
0.0072791623 -0.01206155 0.70099998
0.028290549 -0.012027139 0.699
0.031247718 -0.013020293 0.70099998
-0.13844965 -0.010144065 0.70099998
-0.11527517 -0.010129595 0.69999999
-0.052970044 -0.010115124 0.699
-0.049146019 -0.010115124 0.699
-0.025281958 -0.010129595 0.69999999
-0.022394512 -0.01012236 0.69949996
-0.019509802 -0.010115124 0.699
-0.016689396 -0.010144065 0.70099998
0.03020256 -0.010115124 0.699
-0.1304066 -0.0082031107 0.699
-0.12658258 -0.0062910966 0.699
-0.11702251 -0.0082031107 0.699
-0.11527517 -0.0063000969 0.69999999
-0.061750282 -0.0063090967 0.70099998
-0.049146019 -0.0082031107 0.699
-0.040599953 -0.007258839 0.69999999
-0.037727829 -0.0072574718 0.69999999
-0.034905497 -0.0063090967 0.70099998
-0.032007109 -0.0063045966 0.70050001
-0.028460257 -0.0069362582 0.69966668
-0.025245842 -0.0062910966 0.699
-0.02242516 -0.0063045966 0.70050001
0.0034392795 -0.0063000969 0.69999999
0.0072583943 -0.0082031107 0.699
0.028290549 -0.0082031107 0.699
0.030288976 -0.0063090967 0.70099998
-0.058748763 -0.004382215 0.69949996
-0.055838067 -0.0043790825 0.699
-0.048190009 -0.0043790825 0.699
-0.046277996 -0.0043790825 0.699
-0.043472074 -0.0043853475 0.69999999
-0.040657952 -0.004391612 0.70099998
-0.037754096 -0.0043884795 0.70050001
0.0053463802 -0.0043790825 0.699
0.028371492 -0.004391612 0.70099998
-0.096265003 -0.0024741273 0.70099998
-0.094212934 -0.0015132233 0.69999999
-0.092430033 -0.0024741273 0.70099998
-0.065491691 -0.0015118557 0.69999999
-0.061574105 -0.00055505469 0.699
-0.058790073 -0.00055584876 0.69999999
-0.055838067 -0.00055505469 0.699
-0.053007249 -0.00055545173 0.69949996
-0.0501737 -0.00055584876 0.69999999
-0.043472074 -0.0015132233 0.69999999
-0.034905497 -0.0015153851 0.70099998
0.0034343663 -0.00055505469 0.699
0.026454007 -0.00055664283 0.70099998
0.028331021 -0.0024705979 0.69999999
-0.096127681 0.0013589005 0.69999999
-0.082606263 0.0013569592 0.699
-0.065585248 0.0013608417 0.70099998
-0.048258949 0.0013589005 0.69999999
-0.046410404 0.0013608417 0.70099998
-0.043473445 0.0013589005 0.69999999
-0.032940954 0.0013589005 0.69999999
0.0015223523 0.0013569592 0.699
0.026454007 0.0013608417 0.70099998
-0.096127681 0.005188399 0.69999999
-0.07517267 0.0051958109 0.70099998
-0.063576944 0.0042323917 0.69999999
-0.054080341 0.0032783262 0.70099998
-0.040599953 0.0042323917 0.69999999
-0.037727829 0.005188399 0.69999999
-0.034805913 0.003268973 0.699
-0.032988012 0.0032783262 0.70099998
0.0015245302 0.005188399 0.69999999
0.022586772 0.005188399 0.69999999
0.024501519 0.0032736496 0.69999999
-0.095990352 0.0070930007 0.699
-0.076076433 0.0071082218 0.70050001
-0.058831379 0.0071082218 0.70050001
-0.05599783 0.0071132951 0.70099998
-0.037701566 0.0070980741 0.69949996
-0.034855705 0.0071031479 0.69999999
0.020672023 0.0071031479 0.69999999
0.022619039 0.0071132951 0.70099998
-0.12197543 0.0099739041 0.69999999
-0.11814593 0.0090178978 0.69999999
-0.1151105 0.010917029 0.699
-0.11240441 0.010932647 0.69999999
-0.1096874 0.010948265 0.70099998
-0.10673431 0.010940456 0.70050001
-0.10378668 0.010932647 0.69999999
-0.10091455 0.010932647 0.69999999
-0.098182492 0.0090307798 0.70099998
-0.095990352 0.0090050148 0.699
-0.077035174 0.0099817133 0.70050001
-0.038657568 0.0099674631 0.69949996
-0.031984948 0.0099739041 0.69999999
-0.028154083 0.010932647 0.69999999
0.0149491 0.010948265 0.70099998
0.016818464 0.010917029 0.699
0.020033775 0.010294396 0.69999999
-0.10658193 0.012838219 0.69949996
-0.10378668 0.013803403 0.69999999
-0.10059544 0.013484734 0.69999999
-0.098042428 0.012847396 0.69999999
-0.079822764 0.013799499 0.69975001
-0.037673935 0.013785049 0.699
-0.030981885 0.012829043 0.699
-0.028174877 0.014772689 0.70050001
-0.025318075 0.014783233 0.70099998
-0.10378668 0.016676893 0.69999999
-0.10098596 0.016688805 0.70050001
-0.098042428 0.016676893 0.69999999
-0.095990352 0.01665307 0.699
-0.082606263 0.01665307 0.699
-0.03775546 0.016688805 0.70050001
-0.029153043 0.016700719 0.70099998
-0.025318075 0.016700719 0.70099998
-0.12467057 0.020477097 0.699
-0.086430289 0.020477097 0.699
-0.082606263 0.018565085 0.699
-0.080925129 0.018618202 0.70099998
-0.036822986 0.018618202 0.70099998
-0.034805913 0.018565085 0.699
-0.028113862 0.019521091 0.699
-0.025245842 0.018565085 0.699
-0.12676366 0.022421142 0.69999999
-0.085595191 0.02242114 0.69999999
-0.032005742 0.022437155 0.70050001
-0.12694475 0.026288141 0.70099998
-0.12467057 0.024301127 0.699
-0.11765984 0.024938464 0.69900006
-0.1151105 0.025257133 0.699
-0.094078347 0.024301127 0.699
-0.092166327 0.024301127 0.699
-0.085595191 0.024335891 0.69999999
-0.079850942 0.02625064 0.69999999
-0.12119231 0.028205626 0.70099998
-0.11336043 0.028165391 0.69999999
-0.078782231 0.028125154 0.699
-0.076131418 0.028205626 0.70099998
-0.11336043 0.03008014 0.69999999
-0.10953093 0.031994887 0.69999999
-0.069992453 0.030732712 0.7003333
-0.067406446 0.031036146 0.69999999
-0.065585248 0.031081853 0.70099998
-0.10746244 0.033861198 0.699
-0.10009998 0.035875563 0.70099998
-0.097155087 0.035849974 0.70050001
-0.094078347 0.03577321 0.699
-0.063576944 0.033909637 0.69999999
-0.094212934 0.037739135 0.69999999
-0.08859507 0.039710533 0.70099998
-0.085658386 0.039682209 0.70050001
-0.082783528 0.04064095 0.70050001
-0.079738237 0.040553242 0.699
-0.076870218 0.039597236 0.699
-0.067310147 0.041509252 0.699
-0.063667767 0.041628018 0.70099998
-0.076077797 0.043514442 0.70050001
-0.073046193 0.043421265 0.699
-0.069222167 0.043421265 0.699
-0.063667767 0.043545499 0.70099998
-0.07900764 0.045462988 0.70099998
-0.076022811 0.045398135 0.69999999
-0.073150687 0.045398135 0.69999999
-0.070229053 0.045365706 0.69949996
-0.063667767 0.049297955 0.70099998
-0.060088858 -0.14113444 0.704
-0.027352119 -0.14113444 0.704
-0.058080554 -0.14093398 0.70300001
-0.061926462 -0.13708806 0.70300001
-0.059040662 -0.13708806 0.70300001
-0.056237482 -0.13728307 0.704
-0.05816317 -0.13343167 0.704
-0.055157546 -0.13314739 0.70249999
-0.052237276 -0.13305262 0.70200002
-0.050460409 -0.13343167 0.704
