# .PCD v0.7 - Point Cloud Data file format
VERSION 0.7
FIELDS x y z
SIZE 4 4 4
TYPE F F F
COUNT 1 1 1
WIDTH 1314
HEIGHT 1
VIEWPOINT 0 0 0 1 0 0 0
POINTS 1314
DATA ascii
0.067897126 -0.049911134 0.49844107
0.068839021 -0.049942039 0.4987497
0.069799505 -0.049985453 0.49918327
0.070775755 -0.050038908 0.49971712
0.071774408 -0.050106663 0.50039375
0.072807752 -0.050196651 0.50129241
0.073902145 -0.050325997 0.50258416
0.053266454 -0.049624305 0.50466979
0.053962957 -0.049428254 0.50267601
0.054742083 -0.049313117 0.50150508
0.055550881 -0.049228016 0.50063962
0.056377083 -0.049160816 0.49995619
0.05721505 -0.04910583 0.49939701
0.058065716 -0.04906328 0.49896428
0.058924794 -0.049029026 0.49861592
0.059789464 -0.049000386 0.49832466
0.06066373 -0.048980344 0.49812084
0.061544754 -0.048966262 0.49797764
0.062430277 -0.048956115 0.49787444
0.063327573 -0.048955359 0.49786672
0.064229511 -0.04895816 0.49789521
0.065139905 -0.048967239 0.49798757
0.066060849 -0.048983894 0.49815693
0.0669889 -0.0490053 0.49837464
0.067930125 -0.049035653 0.4986833
0.068885587 -0.04907535 0.49908704
0.069855623 -0.049124278 0.49958462
0.07084617 -0.049186192 0.50021428
0.071868241 -0.049268164 0.50104791
0.07294511 -0.049385201 0.50223815
0.074181035 -0.049605723 0.50448084
0.052458212 -0.048808943 0.50565583
0.053089172 -0.048551634 0.50299013
0.053862326 -0.04843083 0.50173861
0.054667067 -0.048341952 0.50081784
0.055490267 -0.048272021 0.50009334
0.056327701 -0.048216511 0.49951828
0.057177436 -0.048173115 0.49906868
0.05803407 -0.048136786 0.49869233
0.05889703 -0.048106734 0.49838099
0.059771203 -0.048086606 0.49817246
0.060649764 -0.048070554 0.49800617
0.061535504 -0.048060577 0.49790281
0.062430073 -0.048057679 0.4978728
0.063329086 -0.048058242 0.49787861
0.064239278 -0.048067153 0.49797094
0.065156773 -0.048081204 0.49811649
0.066081434 -0.048100092 0.49831218
0.067021459 -0.048129506 0.4986169
0.067971997 -0.04816559 0.49899071
0.068935998 -0.04821014 0.49945226
0.069920547 -0.048267733 0.50004894
0.070934273 -0.04834374 0.50083637
0.071989469 -0.048445743 0.5018931
0.073157333 -0.04862009 0.5036993
0.05222629 -0.047684874 0.50342029
0.052981745 -0.04754772 0.50197232
0.053782623 -0.047455259 0.50099617
0.054604232 -0.047383837 0.50024217
0.055441644 -0.04732823 0.49965513
0.056288745 -0.047282547 0.49917281
0.05714307 -0.047244269 0.49876872
0.058006711 -0.047214765 0.49845722
0.058878474 -0.04719267 0.49822399
0.059754658 -0.047174733 0.4980346
0.060640629 -0.047164932 0.49793115
0.061532542 -0.047159977 0.49787882
0.062430061 -0.0471594 0.49787274
0.063338712 -0.047167122 0.49795428
0.064252846 -0.04717866 0.49807608
0.065177083 -0.0471972 0.49827179
0.066113047 -0.047223605 0.49855056
0.067058742 -0.047256161 0.49889427
0.068018667 -0.047297746 0.49933329
0.069000013 -0.047352951 0.49991611
0.070005469 -0.047423057 0.50065625
0.071048401 -0.047516447 0.50164217
0.072171502 -0.047660429 0.50316221
0.051363755 -0.04681829 0.50386906
0.052107535 -0.046670228 0.50227559
0.05290154 -0.046571441 0.50121242
0.05372081 -0.04649784 0.50042033
0.054555107 -0.046439473 0.49979213
0.055399686 -0.046391606 0.499277
0.056251802 -0.046351485 0.49884519
0.057116125 -0.046322528 0.49853355
0.057985567 -0.046298552 0.49827555
0.058860473 -0.046279609 0.49807167
0.059745662 -0.046269197 0.49795961
0.060634989 -0.046262249 0.49788484
0.061532535 -0.046261687 0.49787876
0.062438201 -0.046267156 0.49793765
0.063349076 -0.046276275 0.49803576
0.064272873 -0.046294447 0.49823135
0.065204866 -0.046317939 0.49848416
0.066145845 -0.046347085 0.49879786
0.067104809 -0.046387888 0.49923697
0.068079978 -0.04643866 0.4997834
0.069077328 -0.046503037 0.50047624
0.070109092 -0.046588622 0.50139731
0.07120163 -0.046711899 0.50272405
0.050511494 -0.045960907 0.50443661
0.051233277 -0.045792576 0.50258911
0.052021418 -0.045688376 0.50144547
0.052836735 -0.045611199 0.50059843
0.053668082 -0.045550223 0.49992919
0.054510258 -0.045500301 0.49938127
0.055363253 -0.045460884 0.49894866
0.056225266 -0.045430016 0.49860987
0.057092477 -0.045404252 0.49832714
0.057967853 -0.045385681 0.49812332
0.058850601 -0.045373365 0.49798813
0.059737414 -0.045364503 0.49789086
0.060634989 -0.045363955 0.49788484
0.061537769 -0.04536726 0.49792111
0.062447708 -0.045375675 0.49801347
0.063368805 -0.045391843 0.49819091
0.064296916 -0.045412507 0.49841774
0.065236561 -0.045440637 0.49872646
0.066191316 -0.045478389 0.4991408
0.06716045 -0.045524869 0.49965093
0.068149917 -0.045583718 0.50029683
0.069170699 -0.045661706 0.50115275
0.070246197 -0.045773327 0.50237787
0.071505308 -0.046000231 0.50486821
0.049674317 -0.045117039 0.50517839
0.050357923 -0.044913825 0.50290298
0.051140498 -0.044804506 0.50167894
0.051952027 -0.044723917 0.50077659
0.052780576 -0.044660486 0.50006634
0.053621072 -0.044609126 0.49949127
0.054474413 -0.044569977 0.49905288
0.05533414 -0.044537235 0.49868628
0.0561992 -0.044509765 0.49837872
0.057075039 -0.044491567 0.49817494
0.057955429 -0.044477422 0.49801657
0.058841746 -0.044468191 0.49791318
0.059737414 -0.044466197 0.49789086
0.060637392 -0.044467419 0.49790457
0.061547123 -0.044475656 0.49799681
0.0624649 -0.044489387 0.49815056
0.063389212 -0.044507317 0.49835131
0.064328179 -0.044534892 0.49866006
0.065278135 -0.044569209 0.49904433
0.066241413 -0.044611566 0.49951857
0.067223169 -0.044665057 0.50011754
0.068234667 -0.044736635 0.50091898
0.06929215 -0.0448361 0.5020327
0.070459835 -0.045003377 0.50390571
0.049488425 -0.044040158 0.50328791
0.050258745 -0.043919805 0.50191253
0.051066685 -0.043836005 0.50095487
0.051892582 -0.043770265 0.50020361
0.052734319 -0.043719906 0.4996281
0.053585194 -0.04367869 0.49915707
0.054442741 -0.043644182 0.49876273
0.055308051 -0.043616921 0.49845117
0.056182034 -0.043597259 0.49822649
0.05706016 -0.043581381 0.49804506
0.057946704 -0.043572329 0.49794158
0.058839824 -0.043568417 0.49789691
0.059737407 -0.043567885 0.4978908
0.060646597 -0.043575704 0.49798018
0.061561137 -0.043587081 0.4981102
0.062484376 -0.043604206 0.49830589
0.063420035 -0.043629386 0.49859366
0.064365298 -0.043660376 0.4989478
0.065322965 -0.043698814 0.49938706
0.06630294 -0.043750919 0.49998251
0.067306675 -0.043817099 0.5007388
0.068347491 -0.04390534 0.50174725
0.069476493 -0.044047188 0.50336826
0.048623674 -0.043170553 0.50373644
0.049380347 -0.043037917 0.5021888
0.050182655 -0.042949118 0.50115263
0.051008005 -0.042882834 0.5003792
0.051847089 -0.042830203 0.49976507
0.052695602 -0.042787027 0.49926126
0.05355107 -0.042750854 0.4988392
0.054417066 -0.042724144 0.4985275
0.055288836 -0.042702761 0.49827799
0.056164857 -0.042685293 0.49807417
0.057051569 -0.042676371 0.49797007
0.057942204 -0.042670615 0.49790293
0.058839817 -0.042670093 0.49789685
0.059746142 -0.042675816 0.49796361
0.060657516 -0.04268492 0.49806982
0.061580323 -0.042701684 0.49826545
0.06251213 -0.042724118 0.49852723
0.063452825 -0.042751901 0.49885142
0.064409539 -0.042789556 0.49929076
0.065383494 -0.042837463 0.4998498
0.066379368 -0.04289823 0.50055885
0.067409299 -0.042979084 0.50150228
0.068499625 -0.04309579 0.50286406
0.047759082 -0.042300902 0.50420374
0.048504539 -0.042158149 0.5025022
0.04930139 -0.042064488 0.50138581
0.050123028 -0.04199497 0.50055718
0.050959378 -0.041940019 0.49990219
0.05180563 -0.041894987 0.49936545
0.052660964 -0.041858714 0.49893311
0.053525809 -0.041831095 0.49860388
0.05439546 -0.04180808 0.49832958
0.05527195 -0.041790988 0.49812582
0.05615633 -0.041780308 0.49799854
0.057044566 -0.041772794 0.49790895
0.057942204 -0.041772287 0.49790293
0.058845744 -0.041775987 0.49794701
0.059755221 -0.041783728 0.49803928
0.060676415 -0.041799307 0.498225
0.061604466 -0.041819092 0.4984608
0.06254252 -0.041844998 0.49876958
0.063496456 -0.041880641 0.49919444
0.064464562 -0.041924506 0.4997173
0.065452769 -0.041980054 0.50037938
0.066472031 -0.042053733 0.5012576
0.067545786 -0.042159449 0.5025177
0.068929076 -0.042453006 0.50601673
0.048220508 -0.041791108 0.50907511
0.048688035 -0.041407581 0.50440323
0.04923743 -0.041106477 0.50073534
0.050071176 -0.041049343 0.50003934
0.050915297 -0.041002583 0.49946976
0.05177157 -0.04096707 0.49903715
0.05263428 -0.040937774 0.49868029
0.053501897 -0.040913217 0.49838114
0.054378845 -0.040896486 0.49817735
0.05526099 -0.040884145 0.49802703
0.05614787 -0.040875651 0.49792352
0.057044566 -0.040874451 0.49790895
0.057945408 -0.040876217 0.49793044
0.058854677 -0.040883783 0.49802262
0.059772663 -0.040897086 0.49818465
0.060697038 -0.040914301 0.49839434
0.061634418 -0.040939651 0.49870315
0.062583692 -0.040972058 0.49909791
0.063546121 -0.041012038 0.49958491
0.064526841 -0.041062534 0.50020003
0.065535672 -0.041129284 0.50101316
0.066593334 -0.041224446 0.50217235
0.067771353 -0.041390561 0.50419587
0.049276631 -0.040987104 0.51050103
0.050020892 -0.040842745 0.50870299
0.050184965 -0.040238395 0.5011757
0.050881807 -0.040075053 0.49914125
0.051742479 -0.040044181 0.49875674
0.052609462 -0.040019166 0.49844515
0.053485554 -0.040001802 0.49822891
0.054365538 -0.039987877 0.49805546
0.055252668 -0.039979573 0.49795204
0.056146909 -0.039976601 0.497915
0.057045128 -0.039976507 0.49791387
0.057954207 -0.03998391 0.49800608
0.058869056 -0.039995007 0.4981443
0.0597913 -0.04001072 0.49833998
0.060726568 -0.040034551 0.49863681
0.061671279 -0.040063825 0.49900141
0.062628172 -0.040100053 0.49945262
0.063605137 -0.040147923 0.50004888
0.064606987 -0.040209945 0.50082135
0.065645441 -0.040292721 0.50185233
0.066779263 -0.040430982 0.50357443
0.050337333 -0.040177505 0.51192117
0.051138423 -0.040081467 0.51069748
0.052122742 -0.040129896 0.51131457
0.051718079 -0.039125849 0.49852151
0.052592076 -0.039106928 0.49828044
0.053469997 -0.039091509 0.49808398
0.054357357 -0.039083388 0.49798051
0.055249225 -0.03907872 0.49792102
0.056146909 -0.039078247 0.497915
0.057053797 -0.039084096 0.49798951
0.057965592 -0.039093073 0.49810389
0.0588874 -0.039108425 0.49829951
0.059818935 -0.039129678 0.49857029
0.06075922 -0.039155941 0.49890494
0.061713684 -0.039190441 0.4993445
0.062686294 -0.039235309 0.49991617
0.063680515 -0.039292231 0.50064147
0.064708374 -0.039368033 0.5016073
0.065800346 -0.039480209 0.50303656
0.051403925 -0.039363366 0.51334894
0.052158438 -0.039234221 0.51166475
0.053116914 -0.039260328 0.51200521
0.052705705 -0.038290471 0.49935701
0.053461947 -0.038187105 0.498009
0.054351524 -0.038180824 0.49792707
0.055249222 -0.038180359 0.49792099
0.056153439 -0.038184337 0.49797291
0.057062466 -0.038191412 0.49806517
0.057983652 -0.038206283 0.4982591
0.058911555 -0.038225055 0.49850389
0.059848025 -0.038248736 0.49881276
0.060801011 -0.038282119 0.49924809
0.061767962 -0.03832319 0.49978369
0.062754743 -0.038375199 0.500462
0.063772231 -0.038444251 0.5013625
0.064843871 -0.038543556 0.50265759
0.05313715 -0.03835116 0.51220024
0.054075301 -0.03836111 0.51233315
0.055004984 -0.03836482 0.51238269
0.05435152 -0.037282448 0.49792701
0.055253144 -0.037284642 0.49795634
0.05616197 -0.037291549 0.49804857
0.057080057 -0.03730429 0.49821872
0.058004409 -0.037320666 0.49843746
0.058940213 -0.0373438 0.4987464
0.059888665 -0.037374128 0.49915147
0.060850114 -0.037411552 0.49965128
0.061829612 -0.037458818 0.50028253
0.062836997 -0.037521373 0.501118
0.06389302 -0.037610784 0.50231212
0.065092035 -0.037780691 0.50458133
0.054081183 -0.037440818 0.51238889
0.055004984 -0.037440367 0.51238269
0.055916302 -0.037431572 0.51226234
0.055261537 -0.036391743 0.49803197
0.056176607 -0.036402442 0.49817836
0.05709786 -0.036416743 0.4983741
0.058032624 -0.036439091 0.49867991
0.058976676 -0.036466494 0.49905497
0.059932746 -0.036500394 0.49951887
0.060906623 -0.036543973 0.50011528
0.061906416 -0.036601603 0.50090396
0.062943473 -0.03667929 0.50196713
0.064079836 -0.036811821 0.50378084
0.055056114 -0.036549859 0.51285899
0.055900548 -0.036497053 0.51211804
0.056795042 -0.036478117 0.51185232
0.056256916 -0.035554372 0.49889055
0.05712527 -0.035534617 0.49861339
0.058065049 -0.035559215 0.49895853
0.059017252 -0.035590556 0.49939829
0.059988387 -0.035632201 0.49998263
0.060980771 -0.035685044 0.50072414
0.062006328 -0.035755474 0.50171238
0.0631034 -0.035864525 0.50324255
0.056139451 -0.035725106 0.51430666
0.056761727 -0.035533763 0.5115521
0.057628546 -0.035499185 0.51105428
0.057313949 -0.034749404 0.50026023
0.058104984 -0.034682821 0.4993017
0.059070643 -0.034720913 0.49985009
0.060055807 -0.034769151 0.50054455
0.061071299 -0.03483326 0.50146747
0.06214045 -0.034925655 0.5027976
0.057615943 -0.034569565 0.51094252
0.058395967 -0.034485806 0.50970453
0.058374964 -0.033938933 0.50162166
0.059131503 -0.033853915 0.50036508
0.06013719 -0.033911947 0.50122285
0.061191186 -0.033995103 0.5024519
0.062408604 -0.034165297 0.50496733
0.058701511 -0.033741813 0.51237148
0.059075575 -0.033430364 0.50764209
0.059442427 -0.033124406 0.50299609
0.060243238 -0.033065837 0.50210673
0.061378192 -0.033189692 0.50398743
0.060158499 -0.032604989 0.50905544
0.060517259 -0.032306205 0.5043906
-0.011548516 -0.018939566 0.51206553
-0.01237022 -0.017868096 0.50787055
-0.011415529 -0.017808225 0.50616884
-0.010578534 -0.017937513 0.50984365
-0.013304153 -0.016974265 0.50854409
-0.012338944 -0.016908923 0.50658649
-0.01139825 -0.016869411 0.50540268
-0.010468367 -0.016840417 0.50453407
-0.0096164159 -0.016943209 0.50761366
-0.0088281492 -0.017191658 0.51505715
-0.014252675 -0.01609173 0.50965238
-0.013265497 -0.016010083 0.50706649
-0.012318925 -0.015968977 0.5057646
-0.011385536 -0.01593975 0.50483894
-0.010459886 -0.015917217 0.5041253
-0.0095394319 -0.015899053 0.50354999
-0.0086629093 -0.015957991 0.50541663
-0.0079060914 -0.016277246 0.51552802
-0.014193901 -0.015109636 0.50755072
-0.013241186 -0.015067556 0.50613719
-0.012303823 -0.015038005 0.50514454
-0.011375251 -0.015015332 0.50438291
-0.010452506 -0.014997074 0.50376964
-0.0095340963 -0.014982152 0.50326836
-0.0086196065 -0.014970895 0.50289023
-0.0077174888 -0.014981007 0.50322992
-0.0069856318 -0.01536839 0.51624256
-0.0060759149 -0.015423477 0.51809299
-0.015127192 -0.014210393 0.50814044
-0.014164807 -0.014164807 0.50651038
-0.013223223 -0.01413517 0.50545061
-0.012291553 -0.014112524 0.50464082
-0.011366513 -0.014094475 0.50399542
-0.010446607 -0.01408021 0.50348532
-0.0095305014 -0.014068835 0.50307858
-0.0086170286 -0.014059363 0.50273985
-0.0077060377 -0.014052186 0.50248325
-0.0067970385 -0.014047213 0.50230539
-0.0060583949 -0.014446942 0.51659906
-0.005126487 -0.014447372 0.51661444
-0.016065512 -0.013311424 0.50882202
-0.015090925 -0.013261722 0.50692219
-0.014144101 -0.013231578 0.50576997
-0.013209119 -0.013209119 0.50491148
-0.0122818 -0.013191563 0.50424039
-0.011359961 -0.013177554 0.50370491
-0.01044208 -0.013166101 0.50326711
-0.0095272446 -0.013156671 0.50290668
-0.0086153876 -0.013149803 0.50264412
-0.0077053988 -0.013144504 0.50244159
-0.006796828 -0.013140534 0.50228983
-0.0058898861 -0.013138976 0.50223029
-0.0051271222 -0.013516958 0.51667845
-0.0041936059 -0.01351273 0.5165168
-0.017015906 -0.012417013 0.50979167
-0.016020045 -0.01235832 0.50738198
-0.015066952 -0.012327505 0.50611687
-0.014128244 -0.012305245 0.50520295
-0.013198144 -0.012287927 0.50449193
-0.01227411 -0.01227411 0.50392467
-0.011354442 -0.012262798 0.50346023
-0.010438374 -0.012253745 0.50308853
-0.0095253205 -0.012246841 0.50280511
-0.008614257 -0.012241312 0.50257814
-0.0077051539 -0.012237597 0.50242561
-0.0067975963 -0.012235674 0.50234663
-0.0058907135 -0.012234558 0.50230086
-0.0049848934 -0.012235648 0.50234556
-0.0040914631 -0.012274388 0.50393611
-0.0032592234 -0.01257129 0.51612568
-0.016952014 -0.011454063 0.50787747
-0.015991528 -0.01142252 0.50647879
-0.015048576 -0.011400436 0.5054996
-0.014115576 -0.011383529 0.50474995
-0.013189182 -0.011369985 0.50414938
-0.012267669 -0.011358952 0.5036602
-0.011350235 -0.011350235 0.50327367
-0.010435835 -0.011343299 0.50296617
-0.0095237847 -0.011337839 0.50272405
-0.0086139794 -0.011334183 0.50256193
-0.0077057299 -0.011331956 0.50246316
-0.0067983903 -0.01133065 0.50240529
-0.0058923322 -0.011331408 0.5024389
-0.0049865106 -0.011332978 0.50250852
-0.0040810658 -0.011336293 0.50265551
-0.0031755622 -0.011341294 0.50287724
-0.0023242875 -0.011621438 0.5152989
-0.001397929 -0.011649408 0.51653916
-0.017888093 -0.010549388 0.50843894
-0.016918199 -0.010516718 0.50686437
-0.015970439 -0.01049486 0.50581092
-0.015034215 -0.010478392 0.50501722
-0.014105295 -0.010465219 0.50438231
-0.013181961 -0.010454658 0.50387335
-0.012262799 -0.010446088 0.50346029
-0.011347097 -0.01043933 0.50313455
-0.010434047 -0.010434047 0.50287998
-0.0095232958 -0.010430276 0.50269824
-0.0086142831 -0.010427817 0.50257969
-0.0077065388 -0.010426493 0.50251591
-0.0068001081 -0.010426832 0.50253224
-0.0058939634 -0.010427781 0.50257796
-0.0049886587 -0.010430832 0.50272501
-0.0040832218 -0.010434899 0.50292104
-0.0031774533 -0.010440203 0.50317669
-0.0022713023 -0.01044799 0.50355196
-0.0013717004 -0.010516371 0.50684762
-0.00046392815 -0.010670347 0.5142687
-0.018829891 -0.0096445782 0.50910026
-0.017846836 -0.0096098343 0.50726628
-0.016843464 -0.0095598046 0.50462538
-0.015835948 -0.009501569 0.50155133
-0.014926573 -0.0094987284 0.50140142
-0.014057012 -0.0095224921 0.5026558
-0.01317622 -0.0095413998 0.50365388
-0.012259047 -0.0095348144 0.50330627
-0.01134493 -0.0095297415 0.50303847
-0.01043315 -0.0095259203 0.50283676
-0.0095232772 -0.0095232772 0.50269723
-0.0086151464 -0.0095220041 0.50263005
-0.0077082207 -0.0095219193 0.50262558
-0.0068019005 -0.0095226606 0.50266469
-0.0058965022 -0.0095251184 0.50279444
-0.0049910387 -0.0095283473 0.50296485
-0.0040856325 -0.0095331427 0.503218
-0.0031799194 -0.0095397579 0.50356722
-0.0022733009 -0.0095478632 0.50399506
-0.0013654344 -0.0095580406 0.50453228
-0.0004557822 -0.0095714256 0.50523883
0.00046189898 -0.0096998783 0.51201934
-0.019781899 -0.0087408395 0.50996327
-0.018354407 -0.0085057011 0.4962447
-0.017457189 -0.0085047847 0.49619123
-0.016560167 -0.0085038692 0.49613783
-0.015663333 -0.0085029528 0.49608436
-0.014766694 -0.0085020354 0.49603087
-0.013870249 -0.0085011199 0.49597743
-0.012973994 -0.0085002026 0.49592394
-0.012120438 -0.0085291965 0.49761552
-0.011327736 -0.0086090798 0.50227606
-0.010433039 -0.0086185969 0.50283134
-0.0095241861 -0.0086171208 0.50274521
-0.008616671 -0.008616671 0.50271899
-0.007710163 -0.0086172409 0.50275224
-0.0068045976 -0.0086191567 0.502864
-0.0058990354 -0.0086216666 0.50301045
-0.0049939803 -0.0086259656 0.50326127
-0.0040885913 -0.0086314706 0.50358242
-0.0031825041 -0.0086382255 0.50397652
-0.0022755733 -0.0086471792 0.5044989
-0.0013671833 -0.0086588273 0.50517851
-0.00045652379 -0.008673952 0.5060609
0.00045762988 -0.0086949682 0.50728703
0.0013813574 -0.0087485975 0.51041591
-0.020151932 -0.0076129516 0.49641344
-0.019254219 -0.0076121329 0.49636003
-0.01835669 -0.0076113106 0.49630642
-0.017459363 -0.0076104915 0.49625301
-0.016562227 -0.0076096714 0.49619955
-0.01566528 -0.00760885 0.49614599
-0.014768528 -0.0076080295 0.49609247
-0.013871972 -0.0076072104 0.49603906
-0.012975606 -0.0076063899 0.49598557
-0.012079434 -0.007605569 0.49593204
-0.011183454 -0.0076047489 0.49587855
-0.01035482 -0.0076535619 0.4990615
-0.009525585 -0.0077111879 0.50281906
-0.0086187413 -0.0077115051 0.50283974
-0.007712943 -0.007712943 0.5029335
-0.0068074372 -0.0077150958 0.50307387
-0.0059024855 -0.0077186348 0.50330466
-0.0049973186 -0.0077231284 0.50359768
-0.0040917657 -0.007728891 0.50397342
-0.003185695 -0.007736688 0.50448185
-0.0022783668 -0.0077464469 0.50511819
-0.0013692528 -0.0077590989 0.50594318
-0.00045744664 -0.0077765929 0.50708389
0.00045931619 -0.0078083747 0.50915629
-0.021052467 -0.0067188721 0.49652886
-0.020154441 -0.0067181471 0.49647528
-0.01925661 -0.0067174225 0.49642172
-0.018358978 -0.0067166989 0.49636826
-0.017461535 -0.0067159748 0.49631473
-0.016564289 -0.0067152521 0.49626133
-0.015667228 -0.0067145261 0.49620768
-0.014770363 -0.0067138011 0.4961541
-0.013873696 -0.0067130788 0.49610072
-0.012977219 -0.0067123547 0.4960472
-0.012080937 -0.0067116315 0.49599376
-0.011184845 -0.006710907 0.49594024
-0.010288947 -0.0067101829 0.49588671
-0.0094369277 -0.0067406627 0.4981392
-0.0086215269 -0.0068064686 0.50300229
-0.007716069 -0.0068082963 0.50313735
-0.0068111466 -0.0068111466 0.50334799
-0.0059061009 -0.0068147318 0.50361294
-0.0050011245 -0.0068197153 0.50398123
-0.0040957555 -0.0068262587 0.50446481
-0.0031893326 -0.0068342839 0.50505787
-0.0022815571 -0.006844671 0.50582546
-0.0013718036 -0.006859018 0.50688571
-0.00045874761 -0.0068812142 0.50852603
-0.021953419 -0.0058243764 0.49664429
-0.021055086 -0.0058237473 0.49659064
-0.020156952 -0.0058231191 0.49653709
-0.019259011 -0.0058224918 0.49648359
-0.018951621 -0.0060090506 0.51239145
-0.018108809 -0.0060362699 0.51471245
-0.017213855 -0.0060481112 0.51572216
-0.016304752 -0.0060560508 0.51639915
-0.015387601 -0.0060617826 0.5168879
-0.014464526 -0.0060657691 0.51722783
-0.013536816 -0.0060682283 0.51743752
-0.01208244 -0.0058174711 0.49605548
-0.011186237 -0.0058168429 0.49600193
-0.010290227 -0.0058162152 0.49594837
-0.0093944129 -0.0058155889 0.49589497
-0.0085581094 -0.0058555482 0.49930233
-0.0077199657 -0.0059035034 0.50339144
-0.0068152053 -0.0059065111 0.50364792
-0.00591058 -0.00591058 0.50399488
-0.005005741 -0.005915876 0.50444645
-0.0041000806 -0.0059223389 0.50499755
-0.0031934371 -0.0059306691 0.50570786
-0.0022854456 -0.0059421584 0.50668758
-0.0013753221 -0.0059597287 0.5081858
-0.022854786 -0.0049294638 0.49675971
-0.021956153 -0.0049289325 0.49670616
-0.02105771 -0.0049284003 0.49665254
-0.020159461 -0.0049278685 0.49659893
-0.019729853 -0.0050471718 0.50862157
-0.019028369 -0.0051051718 0.51446646
-0.018141119 -0.0051167258 0.51563078
-0.017235748 -0.0051241419 0.5163781
-0.01632037 -0.0051292591 0.5168938
-0.015398518 -0.0051328391 0.51725459
-0.014472085 -0.0051352559 0.51749814
-0.013542209 -0.0051366999 0.51764363
-0.012609691 -0.005137282 0.51770228
-0.011187624 -0.0049225548 0.49606347
-0.010291507 -0.0049220249 0.49601009
-0.0093955826 -0.0049214959 0.49595675
-0.0084998468 -0.0049209641 0.49590316
-0.0077059097 -0.0049861767 0.5024749
-0.0068201106 -0.0050014146 0.50401044
-0.0059156576 -0.0050055566 0.50442785
-0.0050107515 -0.0050107515 0.50495136
-0.0041052378 -0.0050175129 0.50563276
-0.0031986465 -0.0050264443 0.50653279
-0.0022906514 -0.005039433 0.50784171
-0.022857632 -0.0040336996 0.49682155
-0.021958884 -0.0040332642 0.49676794
-0.021060336 -0.0040328302 0.49671447
-0.02043849 -0.0040876977 0.50347239
-0.019946933 -0.0041749394 0.51421773
-0.019066431 -0.0041853138 0.51549554
-0.018165214 -0.0041919723 0.51631564
-0.017252536 -0.0041965628 0.51688105
-0.016332606 -0.0041998131 0.51728135
-0.015407571 -0.0042020646 0.51755869
-0.014478703 -0.0042034942 0.51773477
-0.013546369 -0.0042040455 0.51780266
-0.012611258 -0.0042037526 0.51776659
-0.011674405 -0.0042027859 0.5176475
-0.010292788 -0.004027613 0.49607185
-0.0093967486 -0.004027178 0.49601829
-0.008500902 -0.0040267431 0.49596474
-0.0076437695 -0.0040467014 0.49842295
-0.0068256175 -0.0040953704 0.50441742
-0.0059214677 -0.0040994775 0.50492328
-0.0050168461 -0.004104692 0.50556552
-0.0041115708 -0.0041115708 0.50641274
-0.0032052291 -0.0041210088 0.50757521
-0.002299343 -0.0041388175 0.50976866
-0.022860484 -0.0031377135 0.49688357
-0.021961622 -0.0031373745 0.49682987
-0.021083239 -0.0031400567 0.49725464
-0.020653924 -0.0032128326 0.50877929
-0.019991325 -0.003254402 0.51536214
-0.019094452 -0.0032600285 0.51625317
-0.018184658 -0.0032639129 0.51686829
-0.017266793 -0.0032666905 0.51730818
-0.016343277 -0.0032686554 0.51761931
-0.015415256 -0.0032699027 0.51781684
-0.01448315 -0.0032703886 0.51789379
-0.013548571 -0.0032703446 0.51788682
-0.012611998 -0.0032697774 0.51779699
-0.011673701 -0.0032686363 0.51761627
-0.010733401 -0.0032666873 0.51730764
-0.0093979165 -0.0031326388 0.49607992
-0.00850196 -0.0031323009 0.49602643
-0.0076061953 -0.0031319628 0.49597287
-0.0068320832 -0.0031883055 0.50489521
-0.0059283343 -0.0031921801 0.50550878
-0.0050241542 -0.003197189 0.506302
-0.0041194479 -0.0032040153 0.50738299
-0.0032151958 -0.0032151958 0.50915354
-0.023762492 -0.0022417447 0.496999
-0.022863327 -0.0022415027 0.49694535
-0.021964354 -0.0022412606 0.49689171
-0.021237353 -0.0022592929 0.50088948
-0.020915344 -0.0023239274 0.51521903
-0.020023433 -0.0023283062 0.51618987
-0.019116724 -0.0023313076 0.5168553
-0.018201081 -0.002333472 0.51733512
-0.017279064 -0.0023350087 0.51767582
-0.01635143 -0.0023359186 0.51787752
-0.015420262 -0.0023364034 0.51798499
-0.01448632 -0.0023365032 0.51800716
-0.013550133 -0.0023362299 0.51794654
-0.012611238 -0.0023354145 0.51776576
-0.011670813 -0.0023341626 0.51748824
-0.010729161 -0.0023324264 0.51710331
-0.0093990834 -0.0022378771 0.49614155
-0.0085030152 -0.0022376357 0.49608803
-0.0076071401 -0.0022373942 0.49603447
-0.0068080202 -0.0022693402 0.50311697
-0.0059363353 -0.0022832057 0.50619102
-0.0050330339 -0.0022877427 0.50719684
-0.0041301749 -0.0022945416 0.50870419
-0.025325553 -0.0013813938 0.51042932
-0.023765456 -0.0013452144 0.49706095
-0.022866171 -0.0013450689 0.49700716
-0.021967079 -0.0013449233 0.49695334
-0.02129472 -0.0013592375 0.50224251
-0.020951742 -0.0013967828 0.51611561
-0.020048743 -0.0013987495 0.51684231
-0.019135045 -0.0014001253 0.51735067
-0.018214012 -0.0014010778 0.51770264
-0.017287822 -0.0014017153 0.5179382
-0.016357705 -0.0014020889 0.51807624
-0.015424504 -0.0014022277 0.5181275
-0.014488121 -0.0014020762 0.51807153
-0.013549318 -0.0014016535 0.51791537
-0.012608882 -0.0014009868 0.51766902
-0.011666997 -0.0014000396 0.51731902
-0.01072371 -0.0013987448 0.51684058
-0.0094002513 -0.0013428931 0.49620318
-0.0085040713 -0.0013427482 0.49614963
-0.0076080849 -0.0013426032 0.4960961
-0.0067954897 -0.001359098 0.50219095
-0.005946096 -0.001372176 0.50702333
-0.0050448906 -0.0013758793 0.50839168
0.051507477 -0.001392094 0.51438308
0.05236236 -0.0013901511 0.5136652
0.053246319 -0.0013890344 0.51325256
0.054152563 -0.0013885272 0.51306516
-0.02630792 -0.00046154246 0.51162416
-0.025248874 -0.00045907043 0.50888389
-0.023768412 -0.0004484606 0.49712279
-0.022869021 -0.00044841217 0.49706909
-0.021969821 -0.00044836369 0.49701536
-0.021288177 -0.00045293994 0.50208819
-0.020978853 -0.00046619674 0.51678348
-0.020067964 -0.0004666968 0.5173378
-0.019149056 -0.00046705015 0.51772946
-0.018224437 -0.00046729323 0.51799893
-0.017295476 -0.00046744529 0.5181675
-0.016362732 -0.00046750664 0.5182355
-0.015426422 -0.00046746735 0.51819193
-0.014487939 -0.00046735286 0.51806504
-0.013547604 -0.00046715877 0.51784986
-0.012605615 -0.00046687463 0.51753491
-0.01166139 -0.00046645559 0.51707041
-0.010715673 -0.0004658988 0.51645321
-0.0094014211 -0.0004476867 0.4962649
-0.0085051293 -0.00044763839 0.49621135
-0.0076090307 -0.00044759005 0.49615777
-0.0067992564 -0.00045328375 0.5024693
-0.0059586708 -0.00045835928 0.50809556
-0.0050663282 -0.00046057531 0.51055205
0.049652383 -0.00046404096 0.51439375
0.050444864 -0.00046279692 0.51301473
0.051283162 -0.00046201047 0.51214296
0.052152429 -0.00046152589 0.5116058
0.053051591 -0.00046131818 0.51137555
0.053970981 -0.00046129044 0.51134479
0.05490746 -0.00046140724 0.51147425
0.05585973 -0.00046165066 0.51174408
0.056837652 -0.00046209473 0.51223636
-0.026192917 0.00045952486 0.50938761
-0.025202131 0.00045822054 0.50794178
-0.023771372 0.00044851645 0.49718469
-0.022871872 0.00044846808 0.49713108
-0.021972558 0.00044841957 0.49707729
-0.021229153 0.00045168411 0.50069606
-0.021000836 0.00046668525 0.51732498
-0.020084197 0.00046707434 0.51775628
-0.019161267 0.00046734797 0.51805961
-0.01823353 0.00046752644 0.51825744
-0.017300794 0.00046758901 0.51832682
-0.016365161 0.000467576 0.51831239
-0.015427101 0.00046748793 0.51821476
-0.014486982 0.00046732201 0.51803082
-0.013544108 0.00046703819 0.51771623
-0.012599554 0.00046665015 0.51728606
-0.011653283 0.00046613131 0.51671094
-0.010704808 0.00046542645 0.51592958
-0.0094025908 0.00044774241 0.49632666
-0.0085061891 0.00044769418 0.49627319
-0.0076099802 0.0004476459 0.49621966
-0.0068259905 0.00045506604 0.50444496
-0.0059782248 0.00045986346 0.50976294
0.048642922 0.0004632659 0.51353461
0.049399767 0.00046168006 0.51177669
0.050219692 0.00046073113 0.51072478
0.051077634 0.00046015886 0.51009041
0.051962338 0.00045984372 0.50974107
0.052867636 0.00045971858 0.50960237
0.053790621 0.0004597489 0.50963598
0.054738581 0.00045998808 0.50990111
0.055701636 0.0004603441 0.51029575
0.05667964 0.00046081006 0.51081228
0.057680529 0.00046144423 0.51151526
0.058700688 0.00046221013 0.51236427
-0.02714623 0.0013803167 0.51003134
-0.026138496 0.0013757104 0.50832927
-0.025167594 0.0013727779 0.50724572
-0.02377433 0.0013457168 0.49724656
-0.022874713 0.0013455714 0.49719283
-0.021975294 0.0013454261 0.49713916
-0.021131314 0.0013488072 0.4983885
-0.020514974 0.001367665 0.50535649
-0.020098317 0.0014022081 0.51812029
-0.019170832 0.0014027439 0.51831824
-0.018239187 0.0014030144 0.51841819
-0.017304335 0.0014030542 0.51843292
-0.016366808 0.0014028691 0.51836455
-0.015426168 0.001402379 0.51818341
-0.014483243 0.0014016042 0.51789713
-0.013538502 0.0014005346 0.51750195
-0.012591829 0.0013990921 0.51696891
-0.01164272 0.0013971264 0.51624256
-0.010689737 0.0013943136 0.51520324
-0.0094037596 0.0013433942 0.49638835
-0.0085072471 0.0013432496 0.49633491
-0.0076109269 0.0013431048 0.49628142
-0.0068912436 0.0013782487 0.50926721
0.047650982 0.0013878926 0.51283067
0.048367999 0.0013819429 0.51063222
0.04916802 0.0013785426 0.50937581
0.050009709 0.001376414 0.50858927
0.050880004 0.0013751353 0.50811678
0.0517736 0.0013745204 0.50788957
0.05269156 0.0013745625 0.50790513
0.053625476 0.0013750122 0.5080713
0.054574214 0.0013758205 0.50836998
0.055544648 0.0013771401 0.50885755
0.056533046 0.0013788547 0.50949115
0.057536788 0.0013808829 0.51024055
0.058562465 0.0013833654 0.51115781
0.059613224 0.0013863541 0.51226217
-0.028103324 0.0023035512 0.5107016
-0.02707864 0.0022948 0.50876147
-0.026099604 0.0022894389 0.50757289
-0.025140774 0.002285525 0.50670516
-0.024194475 0.0022824977 0.50603402
-0.022877572 0.0022428993 0.49725497
-0.021978034 0.0022426564 0.49720114
-0.021078695 0.0022424143 0.49714744
-0.020367628 0.0022630696 0.50172681
-0.020108353 0.0023381806 0.51837903
-0.01917791 0.0023387694 0.51850957
-0.018243946 0.0023389675 0.5185535
-0.017306488 0.0023387147 0.51849741
-0.016365819 0.0023379743 0.51833326
-0.015423035 0.0023368234 0.51807815
-0.014478235 0.0023351992 0.51771802
-0.013531312 0.0023329849 0.51722711
-0.012581772 0.0023299579 0.51655602
-0.011628148 0.0023256296 0.51559645
-0.010301745 0.00223951 0.49650356
-0.0094049275 0.0022392685 0.49645001
-0.0085083041 0.0022390273 0.49639657
-0.0076297657 0.0022440488 0.49750981
0.046700209 0.0023118916 0.51255071
0.047353491 0.0022987132 0.50962901
0.048123699 0.0022916046 0.50805306
0.048950098 0.0022873878 0.50711817
0.049810659 0.0022848926 0.50656497
0.05069581 0.002283595 0.50627732
0.051599942 0.0022831832 0.50618601
0.05252035 0.0022834935 0.50625479
0.053461637 0.0022846854 0.50651902
0.054420967 0.0022865953 0.50694245
0.055394601 0.0022890333 0.50748295
0.05638722 0.0022921634 0.50817692
0.057401881 0.0022960752 0.50904417
0.058434349 0.0023005649 0.51003957
0.059487898 0.0023057326 0.51118523
0.060574673 0.0023120104 0.51257706
-0.029088514 0.003232057 0.51182365
-0.028023338 0.0032157928 0.50924808
-0.027034933 0.0032075346 0.50794029
-0.026070843 0.0032016824 0.50701356
-0.025120495 0.003197154 0.50629646
-0.024178784 0.0031934243 0.50570583
-0.022880422 0.00314045 0.4973169
-0.021980776 0.0031401108 0.49726316
-0.021081327 0.003139772 0.49720952
-0.02018887 0.0031404907 0.49732336
-0.019503552 0.0031749969 0.50278771
-0.019183811 0.0032752848 0.51866913
-0.018246217 0.0032749618 0.51861799
-0.017306013 0.0032741104 0.51848316
-0.016363483 0.0032726966 0.51825929
-0.015418751 0.0032706442 0.51793426
-0.01447127 0.0032677061 0.51746899
-0.013521159 0.003263728 0.51683903
-0.012567889 0.0032583415 0.51598603
-0.011605733 0.0032496052 0.51460254
-0.010303026 0.0031357037 0.49656528
-0.0094060982 0.0031353661 0.49651182
-0.0085093621 0.0031350281 0.49645829
-0.0078373952 0.0032271629 0.51104861
0.046358217 0.0032129458 0.50879723
0.047102254 0.0032011243 0.50692517
0.047909155 0.0031939438 0.50578809
0.048753798 0.0031895009 0.50508451
0.049624816 0.0031869146 0.50467497
0.050515648 0.0031856715 0.5044781
0.051429231 0.0031858815 0.50451136
0.052360445 0.0031871574 0.50471342
0.05330573 0.0031892317 0.5050419
0.054268595 0.0031922704 0.50552309
0.055252273 0.0031964125 0.50617903
0.056250837 0.0032012672 0.50694782
0.057267595 0.0032069853 0.50785333
0.058312025 0.0032140487 0.50897187
0.059378423 0.0032220851 0.51024449
0.060471397 0.0032312961 0.51170313
-0.028969636 0.0041385195 0.50973195
-0.02797241 0.0041270768 0.5083226
-0.027002219 0.0041189827 0.50732565
-0.026047416 0.0041127498 0.506558
-0.02510252 0.0041076853 0.50593418
-0.024166035 0.0041036662 0.50543916
-0.023236522 0.0041005625 0.50505692
-0.021983515 0.0040377886 0.49732518
-0.021083951 0.0040373523 0.49727142
-0.020184577 0.004036915 0.4972176
-0.019289715 0.0040373821 0.49727511
-0.018550029 0.0040719574 0.50153369
-0.017784126 0.0041040289 0.50548387
-0.01730459 0.0042092246 0.51844054
-0.016359258 0.0042066663 0.51812547
-0.015411331 0.0042030904 0.517685
-0.014460872 0.0041983179 0.51709718
-0.013507033 0.0041918377 0.51629907
-0.012248817 0.0040829391 0.50288624
-0.011201549 0.0040325578 0.49668092
-0.01030431 0.0040321215 0.49662718
-0.0094072688 0.0040316866 0.4965736
-0.0085528092 0.0040513305 0.4989931
0.045400947 0.004127359 0.50835735
0.046085142 0.004106597 0.50580013
0.046873756 0.0040957648 0.504466
0.047703229 0.0040888484 0.50361407
0.048561078 0.0040845764 0.50308794
0.04944637 0.0040827282 0.50286025
0.050349128 0.0040823617 0.50281513
0.051267091 0.0040832194 0.50292081
0.052201521 0.0040853363 0.50318152
0.053157017 0.0040890011 0.5036329
0.054126207 0.0040935786 0.5041967
0.055110674 0.0040991409 0.5048818
0.056119788 0.004106326 0.50576675
0.057146296 0.0041145333 0.50677764
0.05819298 0.0041239117 0.50793278
0.059269864 0.0041351067 0.50931162
0.060379215 0.0041481904 0.51092309
0.061527427 0.0041635102 0.51280999
-0.029924233 0.005064101 0.51032758
-0.0289113 0.0050480044 0.5087055
-0.027934743 0.0050374125 0.5076381
-0.0269753 0.0050292932 0.5068199
-0.026027372 0.0050228261 0.50616819
-0.025089035 0.0050178072 0.50566238
-0.02415704 0.0050137253 0.50525105
-0.023229713 0.0050103301 0.50490892
-0.022307642 0.0050078379 0.50465775
-0.021086575 0.0049351556 0.49733332
-0.020187089 0.0049346215 0.4972795
-0.019287804 0.0049340897 0.49722588
-0.018388709 0.0049335561 0.49717209
-0.017514229 0.004939911 0.49781251
-0.016691271 0.0049622697 0.50006568
-0.015833277 0.0049761729 0.50146675
-0.014929475 0.0049764914 0.50149888
-0.013955142 0.0049518244 0.4990131
-0.01299822 0.0049303593 0.49684995
-0.012100485 0.0049298271 0.49679634
-0.011202944 0.0049292953 0.49674273
-0.010305596 0.004928763 0.49668911
-0.0094084386 0.0049282298 0.49663535
0.044508904 0.0050474014 0.5086447
0.045097657 0.0050108507 0.50496137
0.045854758 0.0049940827 0.50327158
0.046667911 0.0049839518 0.50225067
0.047515076 0.0049777697 0.50162768
0.048386525 0.0049743154 0.50127959
0.049276218 0.004972829 0.50112981
0.050183661 0.0049731559 0.50116271
0.051112019 0.0049755061 0.50139958
0.05205375 0.0049790544 0.50175714
0.053009156 0.0049837669 0.50223202
0.053988047 0.0049904916 0.50290972
0.054981377 0.0049983067 0.50369728
0.055990655 0.0050072945 0.50460297
0.057027437 0.0050184145 0.5057236
0.058087099 0.0050311661 0.50700861
0.059172977 0.0050457576 0.50847906
0.060292926 0.005062765 0.51019293
0.061459832 0.0050831437 0.51224661
-0.029852308 0.0059704618 0.50910097
-0.028868362 0.0059569636 0.50795001
-0.027904373 0.0059468336 0.50708622
-0.026953874 0.0059389891 0.50641733
-0.02601295 0.0059327777 0.50588769
-0.025078261 0.0059275893 0.50544524
-0.024148947 0.0059233266 0.50508177
-0.023225794 0.0059203007 0.50482374
-0.022305487 0.005917782 0.50460899
-0.021389112 0.0059161372 0.50446874
-0.020189609 0.0058325538 0.4973416
-0.019290207 0.0058319229 0.49728778
-0.018390998 0.0058312919 0.49723399
-0.017491989 0.0058306628 0.49718034
-0.016593171 0.0058300332 0.49712667
-0.015694549 0.0058294041 0.49707302
-0.014796115 0.0058287727 0.49701917
-0.013897882 0.005828144 0.49696556
-0.012999838 0.005827514 0.49691182
-0.012101993 0.0058268853 0.49685824
-0.011204339 0.0058262558 0.49680457
-0.01030688 0.0058256276 0.49675098
0.044125013 0.0059136613 0.50425762
0.044847764 0.0058891 0.50216329
0.045642924 0.0058748322 0.50094664
0.04647525 0.0058658086 0.5001772
0.047333144 0.0058602937 0.49970698
0.048213694 0.0058577387 0.4994891
0.049114861 0.0058577359 0.49948886
0.050030228 0.005859396 0.49963042
0.050958753 0.0058625112 0.49989605
0.051909465 0.0058680265 0.50036633
0.052874137 0.0058749039 0.50095278
0.053852241 0.005883018 0.50164467
0.054854095 0.0058934153 0.50253123
0.055874616 0.0059054471 0.50355721
0.056914944 0.0059191543 0.50472599
0.057981573 0.0059351218 0.50608754
0.059083343 0.0059541357 0.50770885
0.060223669 0.0059763948 0.5096069
0.061417717 0.0060032355 0.5118956
-0.028836356 0.0068657994 0.50738686
-0.027882088 0.0068562515 0.50668126
-0.026937688 0.0068485648 0.50611323
-0.026000192 0.0068421559 0.50563961
-0.025069386 0.0068371054 0.50526637
-0.024144549 0.0068333629 0.5049898
-0.023222685 0.0068302015 0.50475615
-0.02230552 0.0068282206 0.50460976
-0.021391245 0.0068269931 0.50451905
-0.020479703 0.0068265679 0.50448763
-0.019292608 0.0067299795 0.49734971
-0.018393297 0.0067292545 0.49729612
-0.01749417 0.0067285271 0.49724236
-0.016595239 0.0067277993 0.49718857
-0.015696503 0.0067270729 0.49713489
-0.014797959 0.0067263455 0.49708113
-0.013899613 0.0067256191 0.49702746
-0.01300146 0.0067248926 0.49697378
-0.012103501 0.0067241671 0.49692017
-0.011482957 0.006889774 0.50915861
0.043189865 0.0068194526 0.5039618
0.04385611 0.0067818728 0.50118464
0.044625115 0.0067613809 0.4996703
0.045443904 0.0067490945 0.49876231
0.046293203 0.0067417282 0.49821794
0.047164779 0.0067378259 0.49792954
0.048053138 0.006736421 0.49782574
0.048956063 0.006737073 0.4978739
0.049879886 0.0067405249 0.49812901
0.050817952 0.0067457459 0.49851483
0.051768776 0.0067524491 0.49901021
0.052740049 0.0067615448 0.4996824
0.053728081 0.0067724474 0.5004881
0.054731719 0.0067849238 0.50141013
0.055759136 0.0067998944 0.50251645
0.056812048 0.0068174456 0.50381351
0.057890818 0.0068374984 0.5052954
0.059003439 0.0068608648 0.5070222
0.060162775 0.0068888674 0.50909162
0.061392665 0.0069239847 0.5116868
-0.027863251 0.0077651688 0.50633895
-0.026922939 0.0077574574 0.50583613
-0.025990969 0.0077516921 0.5054602
-0.02506391 0.0077470266 0.50515598
-0.024140419 0.0077431537 0.50490344
-0.023222443 0.0077408142 0.50475091
-0.022306768 0.0077390834 0.50463802
-0.021394404 0.0077384012 0.50459355
-0.020484904 0.0077387411 0.50461572
-0.019577743 0.0077400384 0.5047003
-0.018672714 0.0077423444 0.50485069
-0.017769599 0.0077457232 0.50507098
-0.016597306 0.0076257894 0.49725053
-0.015698457 0.0076249647 0.49719676
-0.014799803 0.0076241409 0.49714306
-0.014175725 0.0077737849 0.50690079
-0.013283025 0.0077866004 0.50773644
-0.012395563 0.0078046136 0.50891101
-0.011525808 0.0078375489 0.51105863
0.042406499 0.0077517261 0.50546241
0.042883258 0.0076738461 0.50038415
0.043628048 0.0076461527 0.49857837
0.044429161 0.0076292502 0.49747619
0.045263913 0.0076186787 0.49678686
0.046122219 0.0076124053 0.4963778
0.046998452 0.0076092733 0.49617359
0.047896825 0.0076097758 0.49620634
0.04880945 0.0076124826 0.49638286
0.049734559 0.0076170042 0.4966777
0.050677992 0.0076241228 0.49714187
0.051638078 0.0076334546 0.49775037
0.052611198 0.0076443623 0.4984616
0.053604495 0.0076577854 0.49933687
0.054618996 0.0076737432 0.50037742
0.055652943 0.0076918704 0.50155944
0.056709763 0.0077125276 0.50290644
0.057803676 0.0077375001 0.50453478
0.058936086 0.0077667711 0.50644344
0.060121801 0.0078020659 0.5087449
0.061391648 0.007847053 0.51167834
-0.026913252 0.0086669791 0.5056541
-0.025983876 0.0086612916 0.50532228
-0.025059208 0.0086568175 0.50506121
-0.024139879 0.0086539183 0.50489211
-0.023222797 0.00865163 0.5047586
-0.02231 0.008650816 0.50471109
-0.021399491 0.008650858 0.50471354
-0.020491427 0.0086519355 0.50477642
-0.01958606 0.0086543057 0.5049147
-0.01868264 0.0086578093 0.50511909
-0.017781094 0.0086625842 0.50539768
-0.016881714 0.008668988 0.50577128
-0.015984051 0.008677057 0.50624204
-0.015088645 0.0086874021 0.50684559
-0.014196068 0.008700816 0.5076282
-0.013308208 0.0087191705 0.50869906
-0.01243283 0.0087490287 0.51044106
0.041942533 0.0085689044 0.49993217
0.042635143 0.0085270284 0.49748901
0.04341976 0.0085049011 0.49619806
0.044240616 0.008490623 0.49536502
0.045087822 0.0084818676 0.49485421
0.045959253 0.0084779207 0.49462393
0.046846081 0.0084769102 0.49456495
0.047746498 0.00847835 0.49464899
0.048663717 0.0084826658 0.49490079
0.049598023 0.0084897513 0.49531418
0.050544519 0.0084986361 0.4958325
0.051507965 0.0085100112 0.4964962
0.052490663 0.0085241245 0.49731958
0.053488623 0.0085402001 0.49825749
0.05450682 0.0085589224 0.49934977
0.055552963 0.0085813524 0.50065839
0.056624614 0.0086069414 0.50215131
0.057729885 0.008636754 0.50389069
0.058881573 0.0086724795 0.50597501
0.060103785 0.0087173423 0.50859243
0.061453566 0.0087790806 0.5121944
-0.025978995 0.0095712095 0.50522739
-0.025057826 0.0095675336 0.50503337
-0.024139395 0.0095646651 0.50488198
-0.023226023 0.0095636565 0.50482869
-0.022314433 0.0095633287 0.50481141
-0.02140571 0.0095642535 0.50486022
-0.020499969 0.0095666517 0.50498682
-0.019595966 0.0095701227 0.50517005
-0.018694216 0.0095750866 0.50543207
-0.017794663 0.0095817419 0.50578338
-0.016896933 0.0095901508 0.50622725
-0.016001539 0.0096009234 0.50679588
-0.01510891 0.009614761 0.50752634
-0.014220932 0.0096335346 0.50851732
-0.013343089 0.009662237 0.51003242
0.041056324 0.0094745364 0.50012439
0.041669123 0.0094091566 0.49667326
0.042425629 0.0093782973 0.49504429
0.043232091 0.0093595246 0.49405339
0.044068892 0.0093479473 0.49344224
0.044927329 0.0093413256 0.49309272
0.045802258 0.009338324 0.49293429
0.046694685 0.0093389368 0.49296662
0.047604427 0.0093429247 0.49317715
0.048526023 0.00934905 0.49350047
0.049462292 0.0093577309 0.49395868
0.050417721 0.0093696648 0.49458864
0.051385801 0.009383494 0.49531865
0.05237069 0.0093998676 0.49618292
0.053379137 0.0094198473 0.49723759
0.05440668 0.0094424821 0.49843237
0.055456843 0.0094682416 0.49979213
0.056539904 0.0094987042 0.50140011
0.057664394 0.0095350575 0.50331908
0.058841731 0.0095788864 0.50563264
0.060112286 0.0096363202 0.50866437
0.061683629 0.00973952 0.51411188
-0.025057128 0.010478435 0.50501931
-0.024142468 0.010476921 0.50494629
-0.023229729 0.010476152 0.50490928
-0.022320686 0.010477057 0.50495285
-0.021414202 0.01047929 0.50506049
-0.020509476 0.01048262 0.50522101
-0.019607684 0.010487831 0.50547212
-0.018707907 0.01049468 0.50580221
-0.017809954 0.010503306 0.50621796
-0.016914465 0.010514396 0.50675249
-0.016022082 0.010528797 0.50744653
-0.015133797 0.010547798 0.50836229
-0.014254066 0.010575598 0.50970215
0.040505856 0.010467806 0.50450701
0.040714994 0.010290603 0.49596652
0.041442353 0.010249184 0.49397027
0.04223267 0.010224751 0.49279273
0.043055855 0.010209121 0.49203938
0.043901775 0.010199402 0.49157101
0.044769634 0.010195065 0.49136198
0.045654733 0.010194746 0.4913466
0.046552509 0.010197217 0.49146566
0.047463212 0.010202372 0.49171415
0.048393663 0.010211507 0.49215439
0.049335744 0.010222722 0.49269491
0.05029149 0.010236321 0.49335036
0.051268812 0.010253763 0.49419096
0.052261062 0.010273542 0.49514425
0.053270496 0.010295979 0.4962256
0.054309562 0.010323306 0.49754265
0.055374067 0.0103545 0.49904612
0.056471966 0.010390841 0.50079763
0.057615981 0.01043439 0.50289649
0.058830403 0.010489142 0.5055353
0.06018037 0.010566019 0.50924051
-0.024145482 0.011389378 0.50500929
-0.023236239 0.011390314 0.50505078
-0.022328697 0.011392193 0.50513411
-0.021423573 0.011395517 0.50528151
-0.020521618 0.0114009 0.50552016
-0.019621221 0.011407686 0.50582111
-0.01872305 0.011416494 0.50621164
-0.017827839 0.011428102 0.50672632
-0.016935509 0.011442912 0.50738299
-0.016047088 0.011462205 0.50823849
-0.015165718 0.011489181 0.50943458
-0.014311447 0.01154149 0.51175398
0.039703485 0.011409047 0.50588143
0.039797202 0.01117899 0.4956806
0.040472861 0.011118919 0.49301702
0.041240107 0.01108605 0.49155962
0.042051382 0.011066154 0.49067739
0.042889852 0.011054086 0.49014229
0.043748152 0.011047513 0.48985088
0.044621579 0.011044946 0.48973703
0.045508143 0.011045665 0.48976895
0.046414878 0.011051161 0.49001265
0.047332853 0.011059077 0.49036366
0.04826206 0.01106928 0.49081603
0.049212765 0.011083956 0.49146676
0.05017576 0.011100832 0.49221507
0.051152363 0.011120079 0.49306849
0.052154738 0.011144175 0.4941369
0.053175863 0.011171401 0.49534407
0.054219346 0.011202344 0.49671614
0.055291746 0.01123816 0.49830422
0.056408294 0.011281659 0.50023299
0.057577234 0.011334101 0.50255829
0.058847912 0.011404634 0.50568575
0.060460184 0.011538203 0.51160824
-0.022338463 0.012308949 0.505355
-0.021435726 0.01231414 0.50556815
-0.020534612 0.012320768 0.50584024
-0.019636802 0.012330085 0.50622278
-0.018741539 0.012341988 0.50671148
-0.017848931 0.012356952 0.50732583
-0.01696025 0.012376399 0.50812423
-0.016078431 0.012403361 0.50923121
-0.015214662 0.01244836 0.51107866
0.038898889 0.012356117 0.50729156
0.038986195 0.012099164 0.4967421
0.039521351 0.011989624 0.49224484
0.040266316 0.011947148 0.49050099
0.041061763 0.011921157 0.48943385
0.041886903 0.011904699 0.48875815
0.042732935 0.011894734 0.48834905
0.043595593 0.011889707 0.48814267
0.044478789 0.011890369 0.48816985
0.045373783 0.011894098 0.48832294
0.046279743 0.011900505 0.48858598
0.047204565 0.011911432 0.48903459
0.04814218 0.011925127 0.48959687
0.04909141 0.011941154 0.49025485
0.050062243 0.011961775 0.49110147
0.051048741 0.011985356 0.49206963
0.052052099 0.012012023 0.49316445
0.053081535 0.01204371 0.49446538
0.05413891 0.012080583 0.49597925
0.055229399 0.012123526 0.49774233
0.056365687 0.012174989 0.49985516
0.057572242 0.012239768 0.50251472
0.058930684 0.012334329 0.50639701
-0.02144869 0.013234298 0.50587392
-0.020550912 0.013243921 0.50624174
-0.019655187 0.013255823 0.5066967
-0.018762151 0.01327079 0.50726879
-0.017873002 0.013290182 0.50801003
-0.016990608 0.013316963 0.50903374
-0.016121998 0.013358228 0.51061106
0.038135406 0.013324418 0.50931871
0.038758382 0.013223448 0.50545919
0.038596891 0.012865631 0.4917818
0.039313603 0.012810051 0.48965728
0.040167287 0.012800564 0.48929468
0.041019831 0.01279113 0.48893404
0.041871209 0.012781737 0.48857501
0.042721301 0.012772348 0.4882161
0.043570098 0.012762958 0.48785719
0.044417571 0.01275356 0.48749799
0.045263983 0.012744228 0.48714128
0.046154764 0.012747506 0.48726654
0.047079712 0.012759922 0.48774114
0.048022926 0.012776742 0.48838407
0.04898078 0.012796781 0.48915005
0.049951952 0.012819528 0.49001953
0.050945528 0.012847133 0.49107474
0.051960204 0.012879024 0.49229378
0.052996982 0.01291523 0.49367774
0.054062184 0.012957052 0.49527636
0.055167507 0.013006973 0.49718454
0.05633036 0.013068644 0.49954188
0.057598259 0.013152358 0.50274181
-0.019675199 0.014184446 0.50721264
-0.018786369 0.014204327 0.50792354
-0.017902767 0.014230405 0.50885606
-0.017032057 0.014270102 0.51027554
0.037935987 0.014168862 0.5066554
0.037716944 0.013755591 0.49187747
0.038494691 0.013716499 0.49047962
0.03935058 0.013706382 0.49011785
0.040205222 0.013696284 0.48975676
0.041058481 0.013686161 0.48939475
0.041910656 0.01367611 0.48903534
