# .PCD v0.7 - Point Cloud Data file format
VERSION 0.7
FIELDS x y z
SIZE 4 4 4
TYPE F F F
COUNT 1 1 1
WIDTH 892
HEIGHT 1
VIEWPOINT 0 0 0 1 0 0 0
POINTS 892
DATA ascii
-0.067865789 -0.19049226 0.51882666
-0.072840102 -0.19032414 0.52092862
-0.071781054 -0.19000867 0.52006519
-0.070767671 -0.18980733 0.51951408
-0.069782659 -0.18967769 0.51915926
-0.068815365 -0.18959334 0.51892841
-0.067865811 -0.18955624 0.51882684
-0.066936396 -0.18957511 0.51887846
-0.06601651 -0.1896219 0.51900655
-0.065113403 -0.18971892 0.51927209
-0.064225808 -0.18986462 0.5196709
-0.063350014 -0.19005005 0.52017844
-0.062494405 -0.19030251 0.52086943
-0.073977068 -0.18989018 0.52232021
-0.072840132 -0.18938436 0.52092886
-0.071781099 -0.18907048 0.52006549
-0.070767708 -0.18887012 0.51951438
-0.069782682 -0.18874107 0.51915944
-0.068815388 -0.18865715 0.51892859
-0.067865849 -0.18862025 0.51882708
-0.066936418 -0.18863899 0.51887864
-0.066016525 -0.18868554 0.51900667
-0.065113418 -0.18878208 0.51927221
-0.064225823 -0.18892707 0.51967102
-0.063350037 -0.18911161 0.52017862
-0.06249442 -0.18936279 0.52086955
-0.061666511 -0.18970691 0.52181607
-0.06087663 -0.19018048 0.52311873
-0.073977143 -0.18894799 0.52232075
-0.072840169 -0.18844457 0.5209291
-0.071781136 -0.18813227 0.52006578
-0.070767745 -0.18793288 0.51951462
-0.069782712 -0.18780448 0.51915967
-0.068815418 -0.18772097 0.51892883
-0.067865871 -0.18768424 0.51882726
-0.066936441 -0.18770288 0.51887882
-0.066016547 -0.18774919 0.51900685
-0.06511344 -0.18784526 0.51927239
-0.064225838 -0.1879895 0.51967114
-0.063350052 -0.18817313 0.52017874
-0.062494442 -0.18842308 0.52086973
-0.061666518 -0.18876545 0.52181613
-0.060876645 -0.1892367 0.52311885
-0.060212918 -0.1901211 0.52556366
-0.073977225 -0.18800582 0.52232134
-0.072840214 -0.1875048 0.5209294
-0.071781181 -0.18719405 0.52006608
-0.070767783 -0.18699567 0.51951492
-0.069782734 -0.18686786 0.51915985
-0.06881544 -0.18678477 0.518929
-0.067865901 -0.18674824 0.5188275
-0.066936463 -0.18676677 0.518879
-0.06601657 -0.18681286 0.51900703
-0.065113463 -0.18690844 0.51927257
-0.064225852 -0.18705194 0.51967126
-0.063350074 -0.18723467 0.52017891
-0.062494457 -0.18748337 0.52086985
-0.061666526 -0.187824 0.52181619
-0.060876653 -0.18829291 0.52311891
-0.060212869 -0.18917271 0.52556324
-0.073977306 -0.18706363 0.52232188
-0.072840244 -0.18656501 0.52092963
-0.071781211 -0.18625583 0.52006632
-0.070767827 -0.18605845 0.51951522
-0.069782771 -0.18593127 0.51916009
-0.068815477 -0.18584859 0.51892924
-0.067865923 -0.18581222 0.51882768
-0.066936485 -0.18583067 0.51887918
-0.066016592 -0.18587649 0.51900715
-0.065113477 -0.18597159 0.51927269
-0.064225875 -0.1861144 0.51967144
-0.063350089 -0.18629619 0.52017903
-0.062494475 -0.18654366 0.52087003
-0.061666533 -0.18688254 0.52181625
-0.060876667 -0.18734913 0.52311903
-0.060212821 -0.18822433 0.52556282
-0.073977381 -0.18612143 0.52232242
-0.072840273 -0.18562523 0.52092987
-0.071781255 -0.18531762 0.52006662
-0.070767857 -0.18512121 0.51951545
-0.069782801 -0.18499467 0.51916033
-0.0688155 -0.1849124 0.51892942
-0.06786596 -0.18487625 0.51882797
-0.066936508 -0.18489455 0.51887935
-0.066016614 -0.18494014 0.51900733
-0.0651135 -0.18503477 0.51927286
-0.06422589 -0.18517683 0.51967156
-0.063350111 -0.18535773 0.52017921
-0.06249449 -0.18560395 0.52087015
-0.061666541 -0.18594109 0.52181631
-0.060876679 -0.18640533 0.52311915
-0.060212776 -0.18727595 0.52556241
-0.073977463 -0.18517926 0.52232301
-0.072840318 -0.18468545 0.52093017
-0.071781293 -0.1843794 0.52006692
-0.070767894 -0.184184 0.51951575
-0.069782831 -0.18405807 0.51916057
-0.068815529 -0.18397622 0.51892966
-0.067865983 -0.18394022 0.51882815
-0.06693653 -0.18395844 0.51887953
-0.066016637 -0.18400382 0.5190075
-0.065113522 -0.18409795 0.51927304
-0.064225905 -0.18423928 0.51967168
-0.063350126 -0.18441926 0.52017933
-0.062494505 -0.18466422 0.52087027
-0.061666545 -0.18499964 0.52181637
-0.060876686 -0.18546154 0.52311921
-0.060212728 -0.18632758 0.52556199
-0.073977537 -0.18423706 0.52232355
-0.072840355 -0.18374567 0.52093041
-0.07178133 -0.18344118 0.52006716
-0.070767939 -0.18324678 0.51951605
-0.069782868 -0.18312147 0.51916081
-0.068815552 -0.18304001 0.51892984
-0.06786602 -0.18300423 0.51882839
-0.066936553 -0.18302232 0.51887971
-0.066016652 -0.18306744 0.51900762
-0.065113537 -0.18316111 0.51927316
-0.06422592 -0.18330172 0.5196718
-0.063350141 -0.18348078 0.52017945
-0.062494513 -0.18372446 0.52087033
-0.061666545 -0.18405816 0.52181637
-0.060876701 -0.18451776 0.52311933
-0.060212672 -0.18537918 0.52556151
-0.073977627 -0.18329488 0.52232414
-0.072840385 -0.18280587 0.52093065
-0.071781367 -0.18250296 0.52006745
-0.070767969 -0.18230954 0.51951629
-0.06978289 -0.18218486 0.51916099
-0.068815582 -0.18210383 0.51893008
-0.067866042 -0.1820682 0.51882857
-0.066936575 -0.18208621 0.51887989
-0.066016674 -0.1821311 0.5190078
-0.065113559 -0.18222429 0.51927334
-0.064225934 -0.18236415 0.51967192
-0.063350163 -0.18254232 0.52017963
-0.062494528 -0.18278475 0.52087045
-0.061666552 -0.1831167 0.52181643
-0.060876716 -0.18357396 0.52311945
-0.060212623 -0.18443079 0.52556109
-0.073977701 -0.18235268 0.52232468
-0.07284043 -0.18186609 0.52093095
-0.071781412 -0.18156475 0.52006775
-0.070768006 -0.1813723 0.51951653
-0.06978292 -0.18124826 0.51916122
-0.068815619 -0.18116765 0.51893032
-0.067866072 -0.18113221 0.51882881
-0.066936605 -0.18115012 0.51888013
-0.066016696 -0.18119475 0.51900798
-0.065113582 -0.18128747 0.51927352
-0.064225949 -0.18142658 0.51967204
-0.063350178 -0.18160385 0.52017975
-0.062494535 -0.18184499 0.52087051
-0.061666559 -0.18217526 0.52181649
-0.06087672 -0.18263017 0.52311951
-0.060212575 -0.18348242 0.52556068
-0.073977783 -0.18141049 0.52232528
-0.072840467 -0.18092632 0.52093124
-0.071781442 -0.18062651 0.52006799
-0.070768036 -0.18043506 0.51951677
-0.069782943 -0.18031164 0.5191614
-0.068815641 -0.18023144 0.51893049
-0.067866094 -0.18019618 0.51882899
-0.066936634 -0.180214 0.51888031
-0.066016711 -0.18025839 0.5190081
-0.065113604 -0.18035063 0.5192737
-0.064225972 -0.18048905 0.51967221
-0.063350193 -0.18066536 0.52017987
-0.06249455 -0.18090527 0.52087063
-0.061666567 -0.18123381 0.52181655
-0.060876727 -0.18168636 0.52311957
-0.06021253 -0.18253404 0.52556026
-0.073977858 -0.18046829 0.52232581
-0.072840504 -0.17998654 0.52093148
-0.071781486 -0.17968829 0.52006829
-0.070768066 -0.17949781 0.519517
-0.06978298 -0.17937504 0.51916164
-0.068815671 -0.17929526 0.51893073
-0.067866124 -0.17926018 0.51882923
-0.066936649 -0.17927787 0.51888043
-0.066016734 -0.17932205 0.51900828
-0.065113619 -0.1794138 0.51927382
-0.064225987 -0.17955148 0.51967233
-0.063350216 -0.1797269 0.52018005
-0.062494561 -0.17996554 0.52087075
-0.061666574 -0.18029235 0.52181661
-0.060876742 -0.18074258 0.52311969
-0.060212482 -0.18158567 0.52555984
-0.07397794 -0.17952608 0.52232635
-0.072840534 -0.17904674 0.52093172
-0.071781524 -0.17875007 0.52006859
-0.070768103 -0.17856057 0.51951724
-0.06978301 -0.17843843 0.51916188
-0.068815693 -0.17835905 0.51893091
-0.067866154 -0.17832418 0.51882946
-0.066936679 -0.17834178 0.51888067
-0.066016749 -0.17838567 0.5190084
-0.065113641 -0.17847697 0.519274
-0.064226002 -0.17861392 0.51967245
-0.06335023 -0.17878842 0.52018017
-0.062494569 -0.1790258 0.5208708
-0.061666582 -0.1793509 0.52181667
-0.060876742 -0.17979875 0.52311969
-0.060212433 -0.1806373 0.52555943
-0.073978022 -0.17858389 0.52232695
-0.072840579 -0.17810696 0.52093202
-0.071781561 -0.17781183 0.52006882
-0.070768133 -0.17762333 0.51951748
-0.069783039 -0.17750183 0.51916212
-0.068815731 -0.17742287 0.51893115
-0.067866184 -0.17738816 0.51882964
-0.066936702 -0.17740566 0.51888084
-0.066016771 -0.17744933 0.51900858
-0.065113664 -0.17754014 0.51927418
-0.064226016 -0.17767635 0.51967257
-0.063350253 -0.17784996 0.52018034
-0.062494583 -0.17808607 0.52087092
-0.061666589 -0.17840944 0.52181673
-0.060876757 -0.17885497 0.52311981
-0.060212377 -0.17968892 0.52555895
-0.073978096 -0.17764167 0.52232748
-0.072840609 -0.17716716 0.52093226
-0.071781598 -0.17687361 0.52006912
-0.070768163 -0.17668608 0.51951772
-0.069783062 -0.1765652 0.5191623
-0.068815753 -0.17648666 0.51893133
-0.067866214 -0.17645214 0.51882988
-0.066936724 -0.17646955 0.51888102
-0.066016793 -0.17651299 0.51900876
-0.065113679 -0.17660329 0.51927429
-0.064226031 -0.17673878 0.51967269
-0.063350268 -0.17691147 0.52018046
-0.062494598 -0.17714635 0.52087104
-0.061666597 -0.17746799 0.52181679
-0.060876764 -0.17791116 0.52311987
-0.060212329 -0.17874055 0.52555853
-0.073978178 -0.17669947 0.52232808
-0.072840646 -0.17622736 0.5209325
-0.071781635 -0.17593537 0.52006936
-0.0707682 -0.17574884 0.51951796
-0.069783099 -0.1756286 0.51916254
-0.068815783 -0.17555046 0.51893157
-0.067866236 -0.17551613 0.51883006
-0.066936746 -0.17553343 0.5188812
-0.066016808 -0.17557661 0.51900887
-0.065113693 -0.17566645 0.51927441
-0.064226046 -0.17580122 0.51967281
-0.063350283 -0.17597301 0.52018064
-0.062494606 -0.17620659 0.5208711
-0.061666608 -0.17652655 0.52181691
-0.060876776 -0.17696737 0.52311999
-0.060212284 -0.17779218 0.52555811
-0.07397826 -0.17575726 0.52232862
-0.072840683 -0.17528759 0.52093279
-0.071781673 -0.17499715 0.52006966
-0.07076823 -0.17481159 0.5195182
-0.069783121 -0.17469198 0.51916271
-0.068815812 -0.17461428 0.51893181
-0.067866266 -0.17458013 0.5188303
-0.066936769 -0.17459731 0.51888138
-0.066016831 -0.17464027 0.51900905
-0.065113716 -0.17472962 0.51927459
-0.064226061 -0.17486365 0.51967293
-0.063350305 -0.17503455 0.52018082
-0.062494621 -0.17526686 0.52087122
-0.061666623 -0.17558512 0.52181703
-0.06087679 -0.17602359 0.52312011
-0.060212236 -0.17684381 0.5255577
-0.073978335 -0.17481504 0.52232915
-0.07284072 -0.17434779 0.52093303
-0.071781717 -0.17405893 0.52006996
-0.070768259 -0.17387435 0.51951844
-0.069783151 -0.17375536 0.51916295
-0.068815835 -0.17367807 0.51893198
-0.067866288 -0.1736441 0.51883048
-0.066936791 -0.17366119 0.51888156
-0.066016853 -0.17370392 0.51900923
-0.065113738 -0.17379279 0.51927477
-0.064226083 -0.17392612 0.51967311
-0.06335032 -0.17409608 0.52018094
-0.062494628 -0.17432712 0.52087128
-0.061666638 -0.17464368 0.52181715
-0.060876798 -0.17507978 0.52312016
-0.060212187 -0.17589544 0.52555728
-0.073978409 -0.17387283 0.52232969
-0.072840758 -0.173408 0.52093333
-0.071781747 -0.17312068 0.5200702
-0.070768297 -0.1729371 0.51951867
-0.069783188 -0.17281877 0.51916319
-0.068815872 -0.17274188 0.51893222
-0.067866318 -0.17270808 0.51883072
-0.066936821 -0.1727251 0.5188818
-0.066016875 -0.17276756 0.51900941
-0.065113761 -0.17285596 0.51927495
-0.064226098 -0.17298855 0.51967323
-0.063350335 -0.17315759 0.52018106
-0.062494643 -0.17338739 0.5208714
-0.06166666 -0.17370227 0.52181733
-0.060876805 -0.17413598 0.52312022
-0.060212132 -0.17494707 0.5255568
-0.073978491 -0.17293061 0.52233028
-0.072840795 -0.1724682 0.52093357
-0.071781784 -0.17218246 0.52007049
-0.070768327 -0.17199984 0.51951891
-0.069783218 -0.17188215 0.51916343
-0.068815902 -0.17180568 0.51893246
-0.067866355 -0.17177208 0.51883096
-0.066936836 -0.17178895 0.51888192
-0.06601689 -0.17183121 0.51900953
-0.065113775 -0.17191911 0.51927507
-0.064226113 -0.17205097 0.51967335
-0.063350357 -0.17221913 0.52018124
-0.062494654 -0.17244765 0.52087152
-0.061666667 -0.17276081 0.52181739
-0.060876817 -0.17319219 0.52312034
-0.060212083 -0.1739987 0.52555639
-0.073978581 -0.17198841 0.52233088
-0.072840825 -0.1715284 0.52093381
-0.071781822 -0.17124422 0.52007073
-0.070768364 -0.17106259 0.51951915
-0.069783248 -0.17094554 0.51916367
-0.068815932 -0.1708695 0.5189327
-0.067866378 -0.17083605 0.51883113
-0.066936865 -0.17085283 0.5188821
-0.066016905 -0.17089483 0.51900965
-0.065113798 -0.17098229 0.51927525
-0.064226128 -0.1711134 0.51967347
-0.063350372 -0.17128064 0.52018136
-0.062494662 -0.17150791 0.52087158
-0.061666679 -0.17181937 0.52181751
-0.060876831 -0.17224841 0.52312046
-0.060212038 -0.17305034 0.52555597
-0.073978655 -0.17104618 0.52233142
-0.072840869 -0.17058861 0.5209341
-0.071781859 -0.17030598 0.52007103
-0.070768394 -0.17012534 0.51951939
-0.06978327 -0.17000891 0.51916385
-0.068815954 -0.16993327 0.51893288
-0.067866407 -0.16990004 0.51883137
-0.066936895 -0.16991673 0.51888233
-0.066016927 -0.16995847 0.51900983
-0.06511382 -0.17004545 0.51927543
-0.064226143 -0.17017584 0.51967359
-0.063350387 -0.17034215 0.52018148
-0.062494677 -0.17056818 0.5208717
-0.061666701 -0.17087796 0.52181768
-0.060876839 -0.1713046 0.52312052
-0.06021199 -0.17210199 0.52555555
-0.07397873 -0.17010395 0.52233195
-0.072840899 -0.16964881 0.52093434
-0.071781904 -0.16936776 0.52007133
-0.070768423 -0.1691881 0.51951963
-0.069783308 -0.1690723 0.51916409
-0.068815991 -0.16899708 0.51893312
-0.06786643 -0.16896401 0.51883155
-0.066936918 -0.16898061 0.51888251
-0.06601695 -0.16902213 0.51901001
-0.065113835 -0.1691086 0.51927555
-0.064226158 -0.16923827 0.51967371
-0.063350409 -0.16940369 0.52018166
-0.062494691 -0.16962844 0.52087182
-0.061666716 -0.16993652 0.5218178
-0.060876854 -0.1703608 0.52312064
-0.060211942 -0.17115363 0.52555513
-0.073978812 -0.16916175 0.52233255
-0.072840944 -0.16870902 0.52093464
-0.071781941 -0.16842952 0.52007163
-0.070768461 -0.16825084 0.51951987
-0.069783337 -0.16813569 0.51916432
-0.068816021 -0.16806088 0.51893336
-0.067866459 -0.168028 0.51883179
-0.06693694 -0.16804448 0.51888269
-0.066016965 -0.16808575 0.51901013
-0.065113857 -0.16817176 0.51927572
-0.06422618 -0.16830072 0.51967388
-0.063350424 -0.1684652 0.52018178
-0.062494699 -0.1686887 0.52087188
-0.061666731 -0.16899508 0.52181792
-0.060876869 -0.16941702 0.52312076
-0.060211893 -0.17020528 0.52555472
-0.073978893 -0.16821952 0.52233309
-0.072840974 -0.16776922 0.52093488
-0.071781978 -0.16749129 0.52007186
-0.07076849 -0.16731359 0.5195201
-0.069783367 -0.16719908 0.51916456
-0.068816043 -0.16712467 0.51893353
-0.067866482 -0.16709197 0.51883197
-0.066936962 -0.16710836 0.51888287
-0.066016987 -0.16714939 0.51901031
-0.065113872 -0.16723491 0.51927584
-0.064226195 -0.16736315 0.519674
-0.063350447 -0.16752674 0.52018195
-0.062494706 -0.16774894 0.52087194
-0.061666742 -0.16805364 0.52181804
-0.060876872 -0.16847321 0.52312082
-0.060211837 -0.1692569 0.52555424
-0.073978975 -0.16727731 0.52233368
-0.072841011 -0.16682941 0.52093512
-0.071782015 -0.16655305 0.52007216
-0.07076852 -0.16637632 0.51952034
-0.069783404 -0.16626246 0.5191648
-0.068816066 -0.16618846 0.51893371
-0.067866519 -0.16615595 0.51883221
-0.066936985 -0.16617224 0.51888305
-0.066017009 -0.16621305 0.51901048
-0.065113895 -0.16629809 0.51927602
-0.06422621 -0.16642557 0.51967412
-0.063350461 -0.16658825 0.52018207
-0.062494721 -0.16680922 0.52087206
-0.061666757 -0.1671122 0.52181816
-0.06087688 -0.1675294 0.52312088
-0.060211793 -0.16830856 0.52555382
-0.07397905 -0.16633506 0.52233422
-0.072841048 -0.16588962 0.52093542
-0.07178206 -0.16561481 0.52007246
-0.070768557 -0.16543907 0.51952058
-0.069783434 -0.16532585 0.51916504
-0.068816096 -0.16525227 0.51893395
-0.067866541 -0.16521992 0.51883239
-0.066937007 -0.16523612 0.51888323
-0.066017039 -0.16527669 0.51901066
-0.065113917 -0.16536126 0.5192762
-0.064226225 -0.165488 0.51967424
-0.063350484 -0.16564979 0.52018225
-0.062494736 -0.16586949 0.52087218
-0.061666772 -0.16617076 0.52181828
-0.060876895 -0.16658561 0.523121
-0.060211744 -0.1673602 0.52555341
-0.073979132 -0.16539285 0.52233481
-0.072841085 -0.16494982 0.52093565
-0.07178209 -0.16467656 0.5200727
-0.070768587 -0.16450182 0.51952082
-0.069783464 -0.16438924 0.51916528
-0.068816133 -0.16431607 0.51893419
-0.067866571 -0.1642839 0.51883262
-0.066937029 -0.16429998 0.51888341
-0.066017054 -0.16434032 0.51901078
-0.065113939 -0.1644244 0.51927632
-0.06422624 -0.16455044 0.51967436
-0.063350499 -0.1647113 0.52018237
-0.06249474 -0.16492973 0.52087224
-0.061666787 -0.16522932 0.5218184
-0.06087691 -0.16564181 0.52312112
-0.060211688 -0.16641183 0.52555293
-0.073979214 -0.1644506 0.52233535
-0.07284113 -0.16401002 0.52093595
-0.071782134 -0.16373833 0.520073
-0.070768617 -0.16356456 0.51952106
-0.069783501 -0.16345263 0.51916552
-0.068816155 -0.16337985 0.51893437
-0.067866594 -0.16334787 0.5188328
-0.066937052 -0.16336386 0.51888359
-0.066017076 -0.16340396 0.51901096
-0.065113962 -0.16348757 0.5192765
-0.064226255 -0.16361286 0.51967448
-0.063350521 -0.16377282 0.52018255
-0.062494755 -0.16398999 0.52087235
-0.061666798 -0.16428788 0.52181852
-0.060876917 -0.164698 0.52312118
-0.060211673 -0.16546358 0.52555281
-0.073979288 -0.16350836 0.52233589
-0.07284116 -0.16307022 0.52093619
-0.071782172 -0.16280009 0.52007329
-0.070768654 -0.16262729 0.5195213
-0.069783539 -0.16251603 0.51916581
-0.068816185 -0.16244365 0.51893461
-0.067866623 -0.16241185 0.51883304
-0.066937074 -0.16242774 0.51888376
-0.066017091 -0.16246758 0.51901108
-0.065113984 -0.16255073 0.51927668
-0.064226277 -0.16267531 0.51967466
-0.063350536 -0.16283433 0.52018267
-0.062494762 -0.16305025 0.52087241
-0.061666813 -0.16334644 0.52181864
-0.060876928 -0.16375422 0.5231213
-0.060211662 -0.16451533 0.52555269
-0.073979363 -0.16256611 0.52233642
-0.072841197 -0.1621304 0.52093643
-0.071782216 -0.16186185 0.52007359
-0.070768684 -0.16169004 0.51952153
-0.069783561 -0.16157939 0.51916599
-0.068816207 -0.16150743 0.51893479
-0.067866646 -0.16147582 0.51883322
-0.066937104 -0.1614916 0.51888394
-0.066017114 -0.16153122 0.51901126
-0.065113999 -0.16161387 0.5192768
-0.0642263 -0.16173775 0.51967484
-0.063350558 -0.16189586 0.52018285
-0.062494777 -0.16211051 0.52087253
-0.061666835 -0.16240503 0.52181882
-0.060876936 -0.16281042 0.52312136
-0.060211647 -0.16356708 0.52555257
-0.073979445 -0.1616239 0.52233702
-0.072841235 -0.1611906 0.52093673
-0.071782246 -0.1609236 0.52007383
-0.070768721 -0.16075279 0.51952177
-0.069783598 -0.16064279 0.51916629
-0.068816237 -0.16057123 0.51893502
-0.067866683 -0.16053981 0.51883346
-0.066937126 -0.16055548 0.51888412
-0.066017129 -0.16059485 0.51901138
-0.065114021 -0.16067703 0.51927698
-0.064226322 -0.1608002 0.51967502
-0.063350566 -0.16095737 0.52018297
-0.062494792 -0.16117078 0.52087265
-0.061666843 -0.16146356 0.52181888
-0.060876951 -0.16186662 0.52312148
-0.060211632 -0.16261882 0.52555245
-0.073979534 -0.16068166 0.52233762
-0.072841272 -0.1602508 0.52093697
-0.071782291 -0.15998536 0.52007413
-0.070768751 -0.15981552 0.51952201
-0.069783628 -0.15970615 0.51916647
-0.068816267 -0.15963501 0.5189352
-0.067866705 -0.15960376 0.51883364
-0.066937149 -0.15961935 0.5188843
-0.066017151 -0.15965849 0.51901156
-0.065114044 -0.15974019 0.51927716
-0.064226337 -0.15986262 0.51967514
-0.063350588 -0.16001891 0.52018315
-0.062494799 -0.16023102 0.52087271
-0.061666857 -0.16052212 0.521819
-0.060876958 -0.16092281 0.52312154
-0.060211614 -0.16167055 0.52555227
-0.073979609 -0.1597394 0.52233815
-0.072841302 -0.15931098 0.5209372
-0.071782321 -0.15904711 0.52007437
-0.070768781 -0.15887827 0.51952225
-0.069783665 -0.15876955 0.51916677
-0.068816297 -0.15869881 0.51893544
-0.067866735 -0.15866774 0.51883388
-0.066937171 -0.15868323 0.51888448
-0.066017173 -0.15872213 0.51901174
-0.065114059 -0.15880334 0.51927727
-0.064226359 -0.15892507 0.51967531
-0.063350603 -0.15908042 0.52018327
-0.062494814 -0.1592913 0.52087283
-0.061666876 -0.15958069 0.52181917
-0.060876969 -0.15997902 0.52312165
-0.060211606 -0.16072232 0.52555221
-0.073979683 -0.15879716 0.52233869
-0.072841346 -0.15837118 0.5209375
-0.071782365 -0.15810886 0.52007467
-0.070768818 -0.157941 0.51952249
-0.069783695 -0.15783292 0.51916701
-0.068816319 -0.15776259 0.51893562
-0.067866758 -0.15773171 0.51883405
-0.066937201 -0.1577471 0.51888472
-0.066017196 -0.15778577 0.51901191
-0.065114081 -0.15786651 0.51927745
-0.064226381 -0.15798752 0.51967549
-0.063350618 -0.15814193 0.52018338
-0.062494826 -0.15835156 0.52087295
-0.061666891 -0.15863925 0.52181929
-0.060876984 -0.15903522 0.52312177
-0.060211591 -0.15977407 0.52555209
-0.073979765 -0.15785491 0.52233928
-0.072841384 -0.15743138 0.5209378
-0.071782403 -0.15717062 0.52007496
-0.070768848 -0.15700373 0.51952273
-0.069783732 -0.15689631 0.51916724
-0.068816349 -0.15682638 0.51893586
-0.067866787 -0.15679568 0.51883429
-0.066937216 -0.15681095 0.51888484
-0.06601721 -0.1568494 0.51901203
-0.065114096 -0.15692964 0.51927757
-0.064226396 -0.15704995 0.51967567
-0.06335064 -0.15720345 0.52018356
-0.062494833 -0.1574118 0.52087301
-0.061666906 -0.15769781 0.52181941
-0.060876992 -0.15809141 0.52312183
-0.060211573 -0.1588258 0.52555192
-0.073979847 -0.15691267 0.52233982
-0.072841421 -0.15649156 0.52093804
-0.07178244 -0.15623237 0.5200752
-0.070768878 -0.15606648 0.51952296
-0.069783762 -0.15595968 0.51916748
-0.068816379 -0.15589015 0.51893604
-0.067866817 -0.15585966 0.51883453
-0.066937238 -0.15587483 0.51888502
-0.066017233 -0.15591304 0.51901221
-0.065114118 -0.15599281 0.51927775
-0.064226419 -0.1561124 0.51967585
-0.063350655 -0.15626495 0.52018368
-0.062494848 -0.15647207 0.52087313
-0.061666921 -0.15675637 0.52181953
-0.060876999 -0.1571476 0.52312189
-0.060211565 -0.15787756 0.52555186
-0.073979922 -0.15597041 0.52234036
-0.072841451 -0.15555175 0.52093828
-0.071782477 -0.15529412 0.5200755
-0.070768915 -0.15512921 0.5195232
-0.069783792 -0.15502305 0.51916772
-0.068816409 -0.15495396 0.51893628
-0.067866847 -0.15492362 0.51883471
-0.066937268 -0.15493871 0.51888525
-0.066017255 -0.15497668 0.51901239
-0.065114141 -0.15505597 0.51927793
-0.064226434 -0.15517482 0.51967597
-0.063350677 -0.15532647 0.52018386
-0.062494855 -0.15553232 0.52087319
-0.061666932 -0.15581493 0.52181965
-0.060877014 -0.15620381 0.52312201
-0.06021155 -0.15692931 0.52555174
-0.073980004 -0.15502816 0.52234095
-0.072841495 -0.15461195 0.52093858
-0.071782514 -0.15435585 0.52007574
-0.070768945 -0.15419194 0.51952344
-0.069783829 -0.15408644 0.51916796
-0.068816431 -0.15401773 0.51893646
-0.067866877 -0.1539876 0.51883495
-0.06693729 -0.15400258 0.51888543
-0.06601727 -0.15404029 0.51901251
-0.065114155 -0.1541191 0.51927805
-0.064226456 -0.15423726 0.51967615
-0.063350692 -0.15438798 0.52018398
-0.06249487 -0.15459257 0.52087331
-0.061666947 -0.15487348 0.52181977
-0.060877025 -0.15526001 0.52312213
-0.060211532 -0.15598105 0.52555156
-0.073980093 -0.15408592 0.52234155
-0.072841525 -0.15367213 0.52093881
-0.071782552 -0.15341762 0.52007604
-0.070768975 -0.15325467 0.51952368
-0.069783859 -0.15314981 0.5191682
-0.068816461 -0.15308152 0.51893669
-0.067866899 -0.15305156 0.51883513
-0.066937312 -0.15306646 0.51888561
-0.066017285 -0.15310392 0.51901263
-0.065114178 -0.15318227 0.51927823
-0.064226478 -0.1532997 0.51967633
-0.063350715 -0.15344951 0.52018416
-0.062494885 -0.15365283 0.52087343
-0.061666962 -0.15393203 0.52181989
-0.060877033 -0.1543162 0.52312219
-0.060211524 -0.15503283 0.5255515
-0.073980168 -0.15314366 0.52234209
-0.072841562 -0.1527323 0.52093905
-0.071782596 -0.15247937 0.52007633
-0.070769012 -0.1523174 0.51952392
-0.069783889 -0.15221319 0.51916844
-0.06881649 -0.15214531 0.51893693
-0.067866929 -0.15211554 0.51883537
-0.066937342 -0.15213032 0.51888579
-0.066017307 -0.15216756 0.51901281
-0.0651142 -0.15224543 0.51927841
-0.064226493 -0.15236212 0.51967645
-0.06335073 -0.15251102 0.52018428
-0.062494893 -0.15271308 0.52087349
-0.061666977 -0.15299059 0.52182001
-0.060877047 -0.15337241 0.52312231
-0.060211506 -0.15408456 0.52555132
-0.073980242 -0.15220138 0.52234262
-0.0728416 -0.1517925 0.52093935
-0.071782626 -0.1515411 0.52007657
-0.070769042 -0.15138014 0.51952416
-0.069783919 -0.15127656 0.51916867
-0.068816528 -0.1512091 0.51893717
-0.067866951 -0.15117949 0.51883554
-0.066937365 -0.15119419 0.51888597
-0.06601733 -0.15123118 0.51901299
-0.065114222 -0.15130858 0.51927859
-0.064226516 -0.15142456 0.51967663
-0.063350752 -0.15157254 0.52018446
-0.062494908 -0.15177335 0.52087361
-0.061666992 -0.15204914 0.52182013
-0.060877062 -0.15242861 0.52312243
-0.060211491 -0.15313631 0.5255512
-0.073980317 -0.15125912 0.52234316
-0.072841637 -0.15085268 0.52093959
-0.071782671 -0.15060285 0.52007687
-0.070769072 -0.15044287 0.5195244
-0.069783956 -0.15033993 0.51916891
-0.06881655 -0.15027288 0.51893735
-0.067866981 -0.15024346 0.51883578
-0.066937387 -0.15025805 0.51888615
-0.066017352 -0.15029483 0.51901317
-0.065114237 -0.15037172 0.51927871
-0.064226538 -0.15048701 0.5196768
-0.063350767 -0.15063404 0.52018458
-0.062494919 -0.15083361 0.52087373
-0.06166701 -0.15110771 0.52182031
-0.06087707 -0.1514848 0.52312249
-0.060211483 -0.15218808 0.52555114
-0.073980398 -0.15031686 0.52234375
-0.072841667 -0.14991285 0.52093983
-0.071782708 -0.14966461 0.52007717
-0.070769109 -0.1495056 0.51952463
-0.069783986 -0.1494033 0.51916915
-0.06881658 -0.14933667 0.51893759
-0.067867018 -0.14930743 0.51883602
-0.066937409 -0.14932191 0.51888633
-0.066017367 -0.14935845 0.51901329
-0.06511426 -0.14943488 0.51927888
-0.064226553 -0.14954942 0.51967692
-0.063350789 -0.14969556 0.52018476
-0.062494926 -0.14989385 0.52087379
-0.06166701 -0.15016623 0.52182031
-0.060877074 -0.15054098 0.52312255
-0.060211465 -0.15123981 0.52555096
-0.073980488 -0.14937462 0.52234435
-0.072841711 -0.14897305 0.52094012
-0.071782745 -0.14872633 0.52007741
-0.070769139 -0.14856833 0.51952487
-0.069784015 -0.14846668 0.51916939
-0.06881661 -0.14840046 0.51893783
-0.067867041 -0.14837138 0.5188362
-0.066937432 -0.14838578 0.51888651
-0.066017389 -0.14842208 0.51901346
-0.065114275 -0.14849801 0.519279
-0.064226575 -0.14861186 0.5196771
-0.063350804 -0.14875707 0.52018487
-0.062494941 -0.14895411 0.5208739
-0.061667025 -0.14922479 0.52182043
-0.060877088 -0.14959718 0.52312267
-0.06021145 -0.15029158 0.52555084
-0.073980562 -0.14843234 0.52234489
-0.072841749 -0.14803323 0.52094042
-0.071782783 -0.14778808 0.52007771
-0.070769176 -0.14763105 0.51952511
-0.069784053 -0.14753003 0.51916963
-0.068816639 -0.14746422 0.518938
-0.06786707 -0.14743535 0.51883644
-0.066937454 -0.14744964 0.51888669
-0.066017412 -0.14748572 0.51901364
-0.065114297 -0.14756118 0.51927918
-0.064226598 -0.14767429 0.51967728
-0.063350819 -0.14781857 0.52018499
-0.062494956 -0.14801437 0.52087402
-0.061667047 -0.14828336 0.5218206
-0.060877103 -0.14865339 0.52312279
-0.060211435 -0.14934333 0.52555072
-0.073980637 -0.14749007 0.52234542
-0.072841786 -0.14709342 0.52094066
-0.071782827 -0.14684983 0.520078
-0.070769206 -0.14669378 0.51952535
-0.069784082 -0.14659341 0.51916987
-0.068816669 -0.14652801 0.51893824
-0.067867093 -0.14649931 0.51883662
-0.066937476 -0.14651349 0.51888686
-0.066017427 -0.14654933 0.51901376
-0.065114312 -0.14662431 0.5192793
-0.06422662 -0.14673673 0.51967746
-0.063350834 -0.14688008 0.52018511
-0.062494963 -0.14707461 0.52087408
-0.061667059 -0.14734191 0.52182072
-0.060877111 -0.14770958 0.52312285
-0.060211424 -0.14839508 0.5255506
-0.073980711 -0.14654778 0.52234596
-0.072841831 -0.1461536 0.52094096
-0.071782865 -0.14591157 0.5200783
-0.070769235 -0.14575651 0.51952559
-0.069784112 -0.14565678 0.51917011
-0.068816692 -0.14559178 0.51893842
-0.067867123 -0.14556327 0.51883686
-0.066937499 -0.14557736 0.51888704
-0.066017456 -0.14561297 0.51901394
-0.065114334 -0.14568746 0.51927948
-0.064226635 -0.14579915 0.51967758
-0.063350841 -0.14594156 0.52018517
-0.062494971 -0.14613485 0.52087414
-0.061667074 -0.14640045 0.52182084
-0.060877122 -0.14676578 0.52312297
-0.060211416 -0.14744686 0.52555054
-0.073980801 -0.14560552 0.52234656
-0.072841875 -0.14521381 0.52094132
-0.071782902 -0.14497331 0.52007854
-0.070769273 -0.14481923 0.51952583
-0.06978415 -0.14472014 0.51917034
-0.068816721 -0.14465556 0.51893866
-0.067867145 -0.14462723 0.51883703
-0.066937529 -0.14464124 0.51888728
-0.066017479 -0.1446766 0.51901412
-0.065114357 -0.14475061 0.51927966
-0.064226657 -0.14486158 0.51967776
-0.063350849 -0.14500307 0.52018529
-0.062494986 -0.14519511 0.52087426
-0.061667088 -0.14545901 0.52182096
-0.060877129 -0.14582196 0.52312303
-0.060211394 -0.14649859 0.52555037
-0.073980875 -0.14466324 0.52234709
-0.07284192 -0.144274 0.52094162
-0.071782939 -0.14403506 0.52007884
-0.070769303 -0.14388196 0.51952606
-0.069784179 -0.14378351 0.51917058
-0.068816751 -0.14371935 0.5189389
-0.067867182 -0.1436912 0.51883727
-0.066937551 -0.1437051 0.51888746
-0.066017494 -0.14374021 0.51901424
-0.065114379 -0.14381377 0.51927984
-0.06422668 -0.14392401 0.51967794
-0.063350856 -0.14406455 0.52018535
-0.062494993 -0.14425536 0.52087432
-0.061667103 -0.14451756 0.52182108
-0.060877144 -0.14487816 0.52312315
-0.060211383 -0.14555034 0.52555025
-0.073980957 -0.14372097 0.52234769
-0.072841972 -0.1433342 0.52094197
-0.071782984 -0.14309679 0.52007914
-0.070769332 -0.14294468 0.5195263
-0.069784209 -0.14284687 0.51917082
-0.068816781 -0.14278311 0.51893908
-0.067867205 -0.14275515 0.51883745
-0.066937581 -0.14276896 0.51888764
-0.066017516 -0.14280385 0.51901442
-0.065114394 -0.14287691 0.51927996
-0.064226694 -0.14298643 0.51967806
-0.063350871 -0.14312606 0.52018547
-0.062495004 -0.14331561 0.52087444
-0.061667118 -0.14357612 0.5218212
-0.060877152 -0.14393435 0.5231232
-0.060211375 -0.14460212 0.52555019
-0.073981032 -0.14277868 0.52234823
-0.072842009 -0.14239438 0.52094227
-0.071783006 -0.14215851 0.52007931
-0.07076937 -0.14200741 0.51952654
-0.069784246 -0.14191024 0.51917106
-0.068816811 -0.1418469 0.51893932
-0.067867234 -0.14181912 0.51883769
-0.066937603 -0.14183281 0.51888782
-0.066017538 -0.14186747 0.5190146
-0.065114416 -0.14194006 0.51928014
-0.064226717 -0.14204887 0.51967824
-0.063350886 -0.14218755 0.52018559
-0.062495019 -0.14237587 0.52087456
-0.061667129 -0.14263466 0.52182132
-0.060877167 -0.14299054 0.52312332
-0.060211353 -0.14365385 0.52555001
-0.073981121 -0.14183642 0.52234882
-0.072842062 -0.14145458 0.52094263
-0.071783043 -0.14122024 0.52007961
-0.070769399 -0.14107013 0.51952678
-0.069784284 -0.14097361 0.51917136
-0.068816833 -0.14091066 0.5189395
-0.067867257 -0.14088306 0.51883787
-0.066937625 -0.14089668 0.518888
-0.066017553 -0.14093108 0.51901472
-0.065114439 -0.14100321 0.51928031
-0.064226739 -0.1411113 0.51967841
-0.063350894 -0.14124903 0.52018565
-0.062495027 -0.14143611 0.52087462
-0.061667144 -0.1416932 0.52182144
-0.060877178 -0.14204675 0.52312344
-0.060211342 -0.14270562 0.52554989
-0.073981196 -0.14089413 0.52234936
-0.072842099 -0.14051476 0.52094293
-0.071889959 -0.14049084 0.52085423
-0.07095015 -0.1404907 0.5208537
-0.070010535 -0.14049093 0.52085459
-0.069071382 -0.14049213 0.520859
-0.06813141 -0.14049166 0.52085727
-0.067191787 -0.14049192 0.52085823
-0.066252463 -0.1404928 0.52086151
-0.065312475 -0.14049231 0.52085966
-0.064373076 -0.14049307 0.52086246
-0.063433416 -0.14049327 0.52086323
-0.062495042 -0.14049637 0.52087474
-0.061667159 -0.14075176 0.52182156
-0.060877185 -0.14110294 0.5231235
-0.060211327 -0.14175737 0.52554977
-0.074266508 -0.14049141 0.52436382
-0.073320389 -0.14049132 0.52436346
-0.072374292 -0.14049128 0.52436328
-0.071428321 -0.14049147 0.52436399
-0.070482358 -0.14049169 0.52436483
-0.06953644 -0.14049199 0.52436596
-0.068590283 -0.14049181 0.52436531
-0.067644238 -0.14049187 0.52436554
-0.066698417 -0.14049241 0.52436751
-0.065752454 -0.14049265 0.52436841
-0.064806193 -0.14049226 0.52436697
-0.063860193 -0.14049242 0.52436757
-0.062914193 -0.1404926 0.52436823
-0.061968073 -0.1404925 0.52436787
-0.061021954 -0.14049241 0.52436751
-0.060211312 -0.14080913 0.52554965
-0.074771337 -0.14049391 0.52792823
-0.073818773 -0.1404938 0.52792776
-0.072866216 -0.14049368 0.52792734
-0.071913652 -0.14049356 0.52792686
-0.070960984 -0.14049323 0.52792561
-0.070008196 -0.14049263 0.52792341
-0.069055676 -0.14049259 0.52792323
-0.068103418 -0.14049307 0.52792501
-0.067150928 -0.14049308 0.52792507
-0.066198491 -0.1404932 0.52792555
-0.065246113 -0.14049347 0.5279265
-0.064293481 -0.14049315 0.52792537
-0.06334094 -0.14049307 0.52792501
-0.062388621 -0.14049347 0.5279265
-0.061436296 -0.14049385 0.52792799
-0.060483973 -0.14049427 0.52792954
