# .PCD v0.7 - Point Cloud Data file format
VERSION 0.7
FIELDS x y z
SIZE 4 4 4
TYPE F F F
COUNT 1 1 1
WIDTH 1328
HEIGHT 1
VIEWPOINT 0 0 0 1 0 0 0
POINTS 1328
DATA ascii
0.032209888 0.023445524 0.011589447
0.031619951 0.022335708 0.0089431033
0.031596243 0.022293549 0.0070536882
0.031619951 0.022335708 0.011713987
0.031596243 0.022293549 0.011210014
0.031548835 0.022209233 0.007431183
0.031548835 0.022209233 0.006045741
0.031939968 0.022904858 0.017824905
0.031904411 0.022841619 0.016376225
0.031916264 0.022862701 0.018706376
0.031868853 0.022778381 0.017698428
0.031797737 0.022651905 0.014801065
0.031809591 0.022672983 0.014360331
0.031379234 0.021944633 0.0085520288
0.031405762 0.021985076 0.006745215
0.031299654 0.021823304 0.011201582
0.031286392 0.021803081 0.010719547
0.031339444 0.021883968 0.0071059209
0.031379234 0.021944633 0.0057811444
0.031498604 0.022126628 0.015661234
0.031419024 0.022005299 0.016925346
0.031419024 0.022005299 0.014154461
0.031445552 0.022045743 0.013733092
0.03313145 0.025728585 0.003163381
0.033081166 0.025515605 0.018453056
0.033103112 0.025584755 0.016871365
0.033031046 0.025379514 0.017398594
0.033027939 0.025380621 0.015289675
0.033071831 0.025518922 0.012126293
0.033096895 0.025586968 0.012653524
0.032663565 0.02440716 0.0097699035
0.032645825 0.024362165 0.0077059772
0.032663565 0.02440716 0.012798302
0.032645825 0.024362165 0.012248573
0.032610334 0.024272177 0.0081207221
0.032610334 0.024272177 0.0066065229
0.032903105 0.025014583 0.01946252
0.032876488 0.024947092 0.017880831
0.032885361 0.024969589 0.020426994
0.032849874 0.024879601 0.019327538
0.032796644 0.024744617 0.016164158
0.032805514 0.024767114 0.015681921
0.032478347 0.023986951 0.0093496935
0.03249912 0.024030628 0.0073744403
0.032416031 0.023855912 0.012247055
0.032405641 0.023834072 0.011720483
0.032447185 0.023921432 0.0077699772
0.032478344 0.023986951 0.0063212961
0.032571822 0.024183502 0.018631442
0.032571822 0.024183502 0.017117243
0.032530278 0.024096146 0.019553551
0.032509506 0.024052467 0.018500404
0.032509506 0.024052467 0.015472008
0.032530278 0.024096146 0.015010954
0.033698995 0.02797425 0.003442656
0.033678181 0.027756404 0.020082159
0.033690505 0.0278279 0.018360833
0.03364706 0.027614757 0.018934606
0.033643831 0.02761543 0.016639503
0.033668481 0.02775842 0.013196847
0.033684045 0.027829243 0.013770623
0.033415403 0.026601419 0.010643291
0.033403948 0.026554428 0.0083951782
0.033415403 0.026601419 0.013944973
0.033403948 0.026554428 0.013347701
0.033381045 0.026460445 0.008851476
0.033381045 0.026460445 0.007200635
0.033569995 0.027235802 0.02118272
0.033552818 0.027165316 0.019461391
0.033558544 0.027188811 0.022236288
0.033535641 0.02709483 0.021041743
0.033501286 0.026953854 0.017599091
0.033507012 0.026977351 0.017072305
0.03328912 0.026159903 0.010201775
0.033303749 0.026206004 0.0080467528
0.033245225 0.026021602 0.013365155
0.033237908 0.02599855 0.012791825
0.033267174 0.026090752 0.0084817829
0.033289123 0.026159903 0.0069000921
0.033354964 0.026367355 0.020314271
0.033354964 0.026367355 0.018663429
0.033325698 0.026275154 0.021322632
0.033311065 0.026229054 0.020175969
0.033311065 0.026229054 0.016874289
0.033325698 0.026275154 0.01637011
0.033937324 0.030083714 0.055426314
0.033950519 0.030276615 0.056621533
0.033917535 0.029794358 0.051840667
0.033920832 0.029842583 0.051243063
0.033947218 0.030228389 0.053633492
0.033957116 0.030373067 0.055426314
0.033881247 0.029263875 0.058414351
0.033062033 0.025548054 0.056447938
0.033126786 0.025730243 0.057457406
0.032964904 0.025274772 0.053419542
0.032981094 0.025320319 0.052914809
0.033110596 0.025684696 0.054933738
0.033159155 0.025821339 0.056447938
0.032786842 0.02477375 0.058971602
0.03284163 0.024908179 0.043144904
0.03279151 0.024772091 0.042180434
0.03293876 0.025181465 0.046173301
0.032937203 0.025182018 0.046723031
0.032836959 0.024909839 0.044794083
0.0327884 0.024773197 0.043279883
0.032923032 0.025110101 0.042392705
0.032949645 0.025177592 0.04232521
0.033002876 0.025312576 0.042190228
0.033311065 0.026229054 0.051729076
0.033325698 0.026275154 0.053884093
0.033311065 0.026229054 0.048427396
0.033325698 0.026275154 0.048931573
0.033354964 0.026367355 0.053241614
0.033354964 0.026367355 0.054892454
0.033113539 0.025606699 0.042446386
0.033135485 0.02567585 0.044028077
0.033128172 0.0256528 0.041299723
0.033157438 0.025744999 0.042308081
0.033201333 0.0258833 0.045471467
0.033194017 0.025860248 0.046044793
0.033487611 0.026981382 0.058698319
0.033389267 0.02650811 0.042740189
0.033389267 0.02650811 0.044391029
0.033428606 0.026697418 0.043840751
0.033448271 0.026792072 0.046041869
0.033448271 0.026792072 0.049343552
0.033428606 0.026697418 0.048793275
0.033717789 0.028044399 0.051286224
0.033745673 0.028186718 0.053534333
0.033693135 0.027901409 0.047843568
0.033708695 0.027972233 0.04837035
0.033764474 0.028256871 0.052866578
0.033776797 0.028328365 0.054587904
0.033489227 0.026981045 0.041592635
0.033518732 0.027123028 0.043243479
0.033492461 0.026980374 0.040398095
0.033523582 0.027122021 0.041451659
0.033582594 0.027405983 0.044753343
0.033580977 0.02740632 0.045350615
0.033808794 0.028494515 0.050836105
0.033817008 0.028542178 0.053178877
0.033808794 0.028494515 0.047250465
0.033817008 0.028542178 0.047800407
0.033833444 0.028637504 0.052485939
0.033833444 0.028637504 0.054278761
0.033697851 0.027851058 0.040722627
0.033710174 0.027922554 0.042443953
0.033706065 0.027898721 0.039479744
0.033722505 0.02799405 0.040579636
0.033747155 0.028137039 0.044022292
0.03374305 0.028113207 0.04464373
0.03099549 0.021416744 0.057354447
0.030828236 0.021179799 0.054820511
0.03085611 0.021219287 0.05439819
0.031079117 0.021535218 0.056087479
0.030521603 0.020745395 0.05946606
0.030610627 0.020860059 0.046219893
0.030525651 0.020742539 0.045413788
0.030777879 0.021097006 0.048753832
0.030776531 0.021097958 0.049214691
0.030606579 0.020862916 0.047602478
0.030522952 0.020744445 0.046335511
0.030743489 0.021032531 0.04558561
0.030787325 0.02109034 0.045527801
0.030874999 0.021205956 0.045412187
0.031419024 0.022005299 0.053387307
0.031419024 0.022005299 0.050616425
0.031445552 0.022045743 0.051037792
0.031498604 0.022126628 0.054651421
0.031060914 0.021459317 0.045620639
0.031100703 0.021519981 0.046945419
0.031087441 0.02149976 0.044656567
0.031140495 0.021580646 0.045499306
0.031220073 0.021701977 0.048148863
0.031206811 0.021681756 0.048630897
0.031791996 0.022682099 0.059229117
0.031569608 0.02225291 0.045836508
0.031569608 0.02225291 0.047221951
0.031658564 0.022424588 0.046760138
0.03170304 0.022510424 0.048607394
0.03170304 0.022510424 0.05137828
0.031658564 0.022424588 0.050916467
0.032300431 0.023643596 0.052993655
0.032365683 0.023773113 0.05488307
0.032238115 0.023512561 0.050096296
0.032272205 0.023576561 0.050537027
0.032402705 0.023835594 0.054315861
0.032433864 0.023901112 0.055764541
0.031793464 0.022681339 0.044870719
0.03186018 0.022810096 0.046256166
0.031796396 0.022679821 0.043862779
0.03186458 0.02280782 0.044744246
0.031998012 0.02306533 0.047515128
0.031996544 0.023066092 0.048019104
0.032509506 0.024052467 0.052584786
0.032530278 0.024096146 0.054560043
0.032509506 0.024052467 0.049556389
0.032530278 0.024096146 0.050017446
0.032571822 0.024183502 0.053967953
0.032571822 0.024183502 0.055482153
0.032229073 0.023462806 0.044089258
0.032260235 0.023528324 0.045537937
0.032249846 0.023506485 0.043036111
0.03229139 0.023593841 0.043958221
0.032353707 0.023724876 0.046855584
0.032343324 0.023703037 0.047382157
0.027890971 0.017996177 0.058078609
0.027665989 0.017813141 0.055939671
0.027703488 0.017843647 0.055583183
0.02800346 0.018087694 0.057009138
0.027253525 0.017477579 0.05986106
0.027370185 0.017563973 0.048692979
0.027595164 0.017747005 0.050831918
0.027594119 0.017748287 0.051217627
0.027367057 0.017567813 0.049850121
0.027544651 0.017694203 0.048175752
0.027602458 0.017738041 0.048131913
0.027718075 0.017825715 0.048044242
0.028457588 0.01844864 0.054774232
0.028457588 0.01844864 0.052452255
0.028494041 0.018480428 0.052807465
0.028566951 0.018544 0.055839859
0.028020134 0.0180672 0.049350739
0.028074816 0.01811488 0.048142068
0.028184179 0.01821024 0.050368682
0.028165951 0.018194348 0.050771568
0.028999327 0.018999716 0.059678029
0.028669391 0.018646443 0.049616143
0.028867351 0.018858407 0.05077713
0.028867351 0.018858407 0.0530991
0.028801365 0.018787751 0.052712105
0.029748317 0.019788386 0.054458983
0.029652959 0.019679021 0.052034408
0.029703053 0.019731449 0.052404303
0.029898597 0.019945668 0.055568673
0.029099515 0.019104572 0.048807945
0.029103134 0.019101191 0.047544356
0.029301094 0.019313155 0.049866334
0.029299889 0.019314282 0.05028753
0.030059945 0.020125687 0.054121681
0.030059945 0.020125687 0.051587746
0.030091733 0.020162139 0.051973615
0.030155305 0.02023505 0.055279288
0.029630825 0.019633548 0.047012001
0.029678505 0.019688232 0.048224289
0.029662613 0.019670006 0.046130907
0.029726185 0.019742914 0.046902642
0.029821545 0.019852277 0.049327217
0.029805653 0.019834049 0.04976777
0.023978712 0.015540048 0.058566727
0.023712695 0.0154245 0.056694031
0.023757031 0.015443758 0.056381911
0.024111722 0.015597822 0.057630379
0.023224993 0.015212662 0.060127303
0.023360634 0.015264377 0.050380737
0.023626652 0.015379924 0.052253433
0.023625996 0.01538144 0.052583288
0.023358662 0.015268921 0.051370315
0.023563765 0.015342709 0.049971033
0.023631256 0.015369324 0.049944416
0.023766238 0.015422554 0.049891185
0.024646392 0.015822861 0.055786982
0.024646392 0.015822861 0.053798739
0.024690071 0.015843634 0.054109346
0.024777427 0.015885178 0.056718789
0.024122249 0.015573589 0.051065642
0.024187768 0.015604747 0.050040368
0.024318801 0.015667066 0.051966291
0.024296964 0.01565668 0.052308053
0.025316721 0.016207341 0.060011756
0.024903709 0.015956182 0.051396031
0.025151515 0.016106876 0.052390154
0.025151515 0.016106876 0.054378398
0.025068913 0.016056644 0.054047022
0.026250716 0.016764687 0.055573516
0.026129391 0.016685106 0.05351416
0.026191771 0.016722076 0.053833682
0.026437862 0.016875591 0.056532081
0.025441483 0.016281277 0.050709579
0.025444057 0.016277043 0.049644344
0.025691863 0.016427739 0.051632587
0.025691008 0.01642915 0.051987663
0.026641792 0.017005401 0.055332799
0.026641792 0.017005401 0.05319386
0.026682235 0.017031929 0.053523824
0.026763123 0.017084984 0.05632269
0.026156476 0.016687082 0.050303772
0.02621714 0.016726872 0.049194511
0.026338471 0.016806453 0.051253878
0.026318248 0.01679319 0.051623628
0.019548878 0.014230511 0.058782585
0.01926155 0.014191017 0.057027631
0.019309437 0.014197599 0.056735139
0.019692544 0.014250256 0.057905104
0.018734779 0.014118616 0.060245048
0.018879345 0.014131818 0.051158
0.019166673 0.014171311 0.052912958
0.019166447 0.014172945 0.053210396
0.01887867 0.014136724 0.052050315
0.019096076 0.014152439 0.050838303
0.019168245 0.014159859 0.050830886
0.019312585 0.014174698 0.050816048
0.020268101 0.014322699 0.056350455
0.020268101 0.014322699 0.054556008
0.020315763 0.014330916 0.054846868
0.020411091 0.014347352 0.057223026
0.019696141 0.014224083 0.051962961
0.019767635 0.01423641 0.051053405
0.019910626 0.014261062 0.052823197
0.019886794 0.014256954 0.05312638
0.021017304 0.014512069 0.060205556
0.020551845 0.014381653 0.05242962
0.020831119 0.014459901 0.053326841
0.020831119 0.014459901 0.055121284
0.020738028 0.014433819 0.054822214
0.022067036 0.014796759 0.056254599
0.021928735 0.014752863 0.054425802
0.021998778 0.014771629 0.054719146
0.022277161 0.014853059 0.057134651
0.021157388 0.014549604 0.051820017
0.021158721 0.014544833 0.050888442
0.021437999 0.014623082 0.052682884
0.021437554 0.014624672 0.052993413
0.022508552 0.014923038 0.056128323
0.022508552 0.014923038 0.054255627
0.022554653 0.01493767 0.054553106
0.022646854 0.014966932 0.057020776
0.021955349 0.014747459 0.051622164
0.022024499 0.014769405 0.050663862
0.022162803 0.014813301 0.052492667
0.022139752 0.014805984 0.052812096
0.014258896 0.014251931 0.060230207
0.014399639 0.014210918 0.052561104
0.014615472 0.014183752 0.053445999
0.014472483 0.014208406 0.055215798
0.014400536 0.014217461 0.05492083
0.01564743 0.014059415 0.056422863
0.01564743 0.014059415 0.054667909
0.015695542 0.014054468 0.054965347
0.015791766 0.014044576 0.057315178
0.015070072 0.014118768 0.051976118
0.015142241 0.014111349 0.051106066
0.01528658 0.014096512 0.052875854
0.015262524 0.014098985 0.053165879
0.016419942 0.01403963 0.060245048
0.015936557 0.01403963 0.052640244
0.016226588 0.01403963 0.053517722
0.016226588 0.01403963 0.055272676
0.016129909 0.01403963 0.054980185
0.017507553 0.014030548 0.05645173
0.017362539 0.014025594 0.054701731
0.017435048 0.014024769 0.054995049
0.017725075 0.01402807 0.057331681
0.016564956 0.014037979 0.052056912
0.016564956 0.014033025 0.05118439
0.016854985 0.014033025 0.052939348
0.016854985 0.014034675 0.053230185
0.017966768 0.014033025 0.056449253
0.017966768 0.014033025 0.054694299
0.018015105 0.014034675 0.05498514
0.018111784 0.014037979 0.057321776
0.017386707 0.014013208 0.052081682
0.017459216 0.014015686 0.051201727
0.01760423 0.014020639 0.052951727
0.017580062 0.014019813 0.053245049
0.012003899 0.014781171 0.060171198
0.012137745 0.014721376 0.052246392
0.012347868 0.014665074 0.053160794
0.012209568 0.014708967 0.054989595
0.012139526 0.014727737 0.054684792
0.013353283 0.014401375 0.05627178
0.013353283 0.014401375 0.054477334
0.013400274 0.014389925 0.054787856
0.013494257 0.014367022 0.057203352
0.012789386 0.014538794 0.051648244
0.012859873 0.014521616 0.050768197
0.013000848 0.014487263 0.052597001
0.012977352 0.014492989 0.052890345
0.013803396 0.014310371 0.056362785
0.013946386 0.014285717 0.054592993
0.013970219 0.014281607 0.054896176
0.013874891 0.014298044 0.057272334
0.013588911 0.014347352 0.051839687
0.013731902 0.014322699 0.050967116
0.013731902 0.014322699 0.052761566
0.013684238 0.014330916 0.053052422
0.0098419702 0.015612535 0.060074072
0.0099664265 0.015535072 0.051728394
0.010166928 0.015450683 0.052691355
0.010035891 0.015512999 0.054617282
0.0099690594 0.01554113 0.054296296
0.011127071 0.015052538 0.055998825
0.011127071 0.015052538 0.054126129
0.011172065 0.015034795 0.054455984
0.011262053 0.014999308 0.056988403
0.010587138 0.01526546 0.051104166
0.01065463 0.015238845 0.050194431
0.010789612 0.015185615 0.052120358
0.010767115 0.015194487 0.0524236
0.0115606 0.01490109 0.056150269
0.0116989 0.014857195 0.054321468
0.011721951 0.01484988 0.0546409
0.011629749 0.014879143 0.057108566
0.011353148 0.014966932 0.051402688
0.01149145 0.014923038 0.050510239
0.01149145 0.014923038 0.052382935
0.011445349 0.01493767 0.05268041
0.007813381 0.01673054 0.059940644
0.0079261307 0.016636852 0.051016755
0.0081132734 0.016525948 0.052046433
0.0079919426 0.016605526 0.054105788
0.0079295626 0.016642494 0.053762566
0.00901026 0.01600077 0.055609073
0.00901026 0.01600077 0.05362083
0.0090524191 0.015977066 0.05397591
0.0091367373 0.015929654 0.056674313
0.0085043488 0.016285229 0.050354004
0.0085675865 0.016249672 0.049395438
0.0086940648 0.016178558 0.051454805
0.0086729852 0.016190412 0.051774323
0.0094191283 0.015791703 0.055818141
0.0095501654 0.015729383 0.053892218
0.009572004 0.015718998 0.054233979
0.0094846459 0.015760543 0.056843422
0.0092225745 0.015885178 0.050754055
0.0093536107 0.015822861 0.049822256
0.0093536107 0.015822861 0.051810496
0.0093099326 0.015843634 0.052121099
0.0059559201 0.018114356 0.059773386
0.0060548619 0.018006189 0.050124731
0.0062251613 0.017870834 0.051238034
0.006115797 0.017966194 0.053464644
0.006059031 0.018011313 0.053093545
0.0070422813 0.01722841 0.055109795
0.0070422813 0.01722841 0.052970856
0.0070808199 0.017199185 0.053356566
0.0071578971 0.017140735 0.056266937
0.0065798159 0.017579108 0.049411751
0.006637624 0.017535271 0.048386116
0.0067532412 0.017447598 0.050612733
0.0067339712 0.017462207 0.050954606
0.0074188737 0.016965613 0.055372588
0.0075402032 0.016886031 0.053313233
0.007560425 0.016872769 0.053682987
0.0074795391 0.016925823 0.056481849
0.0072368789 0.017084984 0.049905874
0.0073582092 0.017005401 0.048915982
0.0073582092 0.017005401 0.051054921
0.0073177652 0.017031929 0.051384885
0.0043041911 0.01973821 0.059575424
0.0043874839 0.019617576 0.049068935
0.0045377649 0.019460294 0.050281227
0.004442404 0.019569658 0.052705802
0.00439231 0.019622086 0.052301705
0.005259796 0.01871259 0.054510284
0.005259796 0.01871259 0.052188307
0.0052939961 0.018678389 0.052609503
0.0053623971 0.018609988 0.055773873
0.004849392 0.019122994 0.048294947
0.004900692 0.019071693 0.047185257
0.005003294 0.018969089 0.049609832
0.004986194 0.018986192 0.049979728
0.0055970969 0.01840096 0.054821912
0.0057064602 0.0183056 0.052595295
0.0057246881 0.018289708 0.052998185
0.005651779 0.01835328 0.056030579
0.0054330518 0.018544 0.048873931
0.0055424152 0.01844864 0.047808312
0.0055424152 0.01844864 0.050130278
0.00550596 0.018480428 0.050485488
0.002888961 0.02157185 0.05935045
0.0029948398 0.021380333 0.046544265
0.00295505 0.021440998 0.047869045
0.0030798172 0.021262813 0.047427453
0.003082515 0.021264717 0.049193818
0.0030029349 0.021386048 0.051843375
0.002960447 0.021444809 0.051401783
0.0036960102 0.020425659 0.053821709
0.0037252349 0.020387119 0.055549536
0.0036960102 0.020425659 0.051287774
0.0037252349 0.020387119 0.051748633
0.003783684 0.020310042 0.055204291
0.003783684 0.020310042 0.056471258
0.0033453109 0.020888124 0.047024399
0.003389148 0.020830315 0.045815241
0.003476823 0.020714698 0.04846479
0.003462211 0.020733969 0.048867844
0.0039877361 0.020071005 0.05417636
0.0039559491 0.020107459 0.055829201
0.004083096 0.019961642 0.051751792
0.0040989891 0.019943412 0.052192342
0.0040354161 0.020016324 0.055498015
0.0039877361 0.020071004 0.056710303
0.0038446961 0.02023505 0.047677476
0.0039400561 0.020125687 0.046519868
0.0039400561 0.020125687 0.049053811
0.0039082691 0.020162139 0.049439676
0.001736593 0.023581119 0.05910264
0.001815408 0.023376968 0.045098726
0.001784249 0.023442486 0.046547402
0.00188359 0.023248971 0.046064507
0.001886523 0.023250489 0.047996081
0.001824205 0.023381528 0.050893445
0.0017901141 0.023445524 0.050410554
0.0023800521 0.022335708 0.053056896
0.0024037571 0.022293549 0.054946311
0.0023800521 0.022335708 0.050286014
0.0024037571 0.022293549 0.05078999
0.0024511672 0.022209233 0.054568816
0.0024511672 0.022209233 0.055954263
0.002060035 0.022904858 0.044175096
0.002095592 0.022841619 0.045623776
0.00208374 0.022862701 0.043293625
0.0021311501 0.022778381 0.044301569
0.002202265 0.022651905 0.047198933
0.002190412 0.022672983 0.047639668
0.002620769 0.021944633 0.053447977
0.0025942421 0.021985076 0.055254783
0.0027003479 0.021823304 0.050798416
0.002713612 0.021803081 0.051280454
0.0026605581 0.021883968 0.054894079
0.002620769 0.021944633 0.056218855
0.0025013981 0.022126628 0.046338767
0.002580978 0.022005299 0.045074653
0.002580978 0.022005299 0.047845539
0.002554452 0.022045743 0.048266906
0.00086855202 0.025728585 0.058836617
0.00091883499 0.025515605 0.043546945
0.00089688803 0.025584755 0.045128636
0.000968954 0.025379514 0.044601411
0.00097206596 0.025380621 0.046710327
0.00092817098 0.025518922 0.04987371
0.00090311101 0.025586968 0.049346477
0.001336435 0.02440716 0.052230094
0.001354179 0.024362165 0.05429402
0.001336435 0.02440716 0.049201697
0.001354179 0.024362165 0.049751427
0.001389666 0.024272177 0.05387928
0.001389666 0.024272177 0.05539348
0.001096898 0.025014583 0.042537481
0.001123513 0.024947092 0.044119172
0.001114642 0.024969589 0.04157301
0.001150129 0.024879601 0.042672463
0.001203359 0.024744617 0.045835845
0.001194487 0.024767114 0.046318077
0.001521659 0.023986951 0.052650306
0.0015008859 0.024030628 0.054625556
0.001583977 0.023855912 0.049752943
0.001594363 0.023834072 0.050279517
0.001552818 0.023921432 0.054230023
0.001521659 0.023986951 0.055678703
0.001428182 0.024183502 0.043368559
0.001428182 0.024183502 0.044882759
0.001469727 0.024096146 0.042446449
0.0014904999 0.024052467 0.043499596
0.0014904999 0.024052467 0.046527993
0.001469727 0.024096146 0.046989046
0.00030101 0.02797425 0.058557343
0.00032182402 0.027756404 0.041917838
0.000309497 0.0278279 0.043639168
0.000352945 0.027614757 0.043065391
0.00035617797 0.02761543 0.045360498
0.000331524 0.02775842 0.048803154
0.00031596402 0.027829243 0.048229378
0.00058460096 0.026601419 0.051356707
0.00059605198 0.026554428 0.053604819
0.00058460096 0.026601419 0.048055027
0.00059605198 0.026554428 0.048652299
0.000618955 0.026460445 0.053148527
0.000618955 0.026460445 0.054799367
0.00043000601 0.027235802 0.040817276
0.000447183 0.027165316 0.042538606
0.00044145799 0.027188811 0.039763711
0.00046436 0.02709483 0.040958252
0.00049871503 0.026953854 0.044400908
0.00049298903 0.026977351 0.044927698
0.00071088097 0.026159903 0.051798224
0.00069624902 0.026206004 0.053953245
0.00075477501 0.026021602 0.048634846
0.00076209096 0.02599855 0.049208175
0.00073282805 0.026090752 0.053518221
0.00071088097 0.026159903 0.055099912
0.00064503803 0.026367355 0.04168573
0.00064503803 0.026367355 0.04333657
0.00067430199 0.026275154 0.040677369
0.00068893301 0.026229054 0.041824028
0.00068893301 0.026229054 0.045125708
0.00067430199 0.026275154 0.045629889
9.8962002e-05 0.032446768 0.058125
3.6286001e-05 0.031530485 0.039395835
4.6181998e-05 0.03167516 0.041333336
2.9689001e-05 0.031434033 0.040687501
3.6286001e-05 0.031530485 0.043270838
5.6078999e-05 0.031819835 0.047145836
5.9376998e-05 0.031868063 0.046500001
9.0819995e-06 0.030734139 0.049995027
7.4310001e-06 0.030782478 0.05253002
1.4036e-05 0.030589124 0.046265043
1.4862e-05 0.030564955 0.046935044
1.1559e-05 0.030661631 0.052005034
9.0819995e-06 0.030734139 0.05387003
1.651e-06 0.030951662 0.038152505
1.651e-06 0.030951662 0.040090002
4.9539999e-06 0.030854985 0.036957514
6.6049997e-06 0.030806646 0.038297519
6.6049997e-06 0.030806646 0.042172521
4.9539999e-06 0.030854985 0.042770013
4.4539e-05 0.030276276 0.058270015
3.5495003e-05 0.030057626 0.040241759
3.3018001e-05 0.030130135 0.042106751
4.7038997e-05 0.029913062 0.041485086
5.0333998e-05 0.029913288 0.04397174
4.5379998e-05 0.030058302 0.047701728
3.9608003e-05 0.030130584 0.047080062
0.000138555 0.02887762 0.050453003
0.00014350101 0.028829506 0.052891549
0.000138555 0.02887762 0.046867356
0.00014350101 0.028829506 0.047513075
0.00015339399 0.02873328 0.052390166
0.00015339399 0.02873328 0.054182991
7.1782e-05 0.029527145 0.039046545
7.9200996e-05 0.029454974 0.040911537
7.6728e-05 0.029479031 0.037899438
8.6620006e-05 0.029382804 0.039190881
0.00010145899 0.029238468 0.042920865
9.8985998e-05 0.029262524 0.043494415
0.00020353901 0.028423019 0.050907601
0.00019532099 0.028470682 0.053250369
0.00022819301 0.028280029 0.047464952
0.000232302 0.028256197 0.048086386
0.00021586601 0.028351525 0.052771918
0.00020353901 0.028423019 0.054493248
0.00016655799 0.028637504 0.039936181
0.00016655799 0.028637504 0.041729003
0.00018299399 0.028542178 0.038836289
0.00019121199 0.028494515 0.040079169
0.00019121199 0.028494515 0.043664817
0.00018299399 0.028542178 0.044214759
0.033897735 0.029408101 0.03969606
0.033886191 0.029263537 0.038548958
0.033917528 0.029697455 0.043281708
0.033915877 0.029697567 0.043927427
0.033892792 0.02940844 0.041633226
0.033882897 0.029263761 0.0398404
0.033921637 0.029624496 0.038833834
0.033929061 0.029696668 0.038761664
0.033943903 0.029841008 0.038617324
0.033993393 0.030806646 0.049922518
0.033995043 0.030854985 0.052457511
0.033993393 0.030806646 0.04604752
0.033995043 0.030854985 0.046645012
0.033998348 0.030951662 0.051715005
0.033998348 0.030951662 0.053652503
0.033971108 0.030154079 0.038950089
0.033973578 0.030226585 0.040815081
0.033972755 0.030202415 0.037610084
0.033976059 0.030299094 0.038805071
0.03398101 0.03044411 0.042535055
0.033980187 0.03041994 0.043205064
0.033960413 0.031578708 0.058125
0.033993401 0.031096451 0.039395835
0.033993401 0.031096451 0.041333336
0.033980209 0.031289354 0.040687501
0.033973608 0.031385805 0.043270838
0.033973608 0.031385805 0.047145836
0.033980209 0.031289354 0.046500001
0.00033536501 0.034166723 0.0077499999
0.00052222505 0.035065942 0.045208331
0.00049271999 0.034923963 0.041333333
0.000541894 0.035160597 0.042624999
0.00052222505 0.035065942 0.03745833
0.00046321601 0.034781981 0.029708331
0.00045338197 0.034734655 0.030999998
0.00080847001 0.036087561 0.024541665
0.00077609497 0.035996467 0.019375
0.00090559502 0.036360849 0.032291666
0.00092178298 0.036406394 0.030999998
0.00085703202 0.036224205 0.020666666
0.00080847001 0.036087561 0.016791666
0.000662782 0.035677638 0.047791664
0.000662782 0.035677638 0.043916665
0.00072753202 0.035859831 0.050375
0.00075990701 0.035950925 0.047791664
0.00075990701 0.035950925 0.040041663
0.00072753202 0.035859831 0.03875
0.00092178298 0.036406394 0.0077499999
0.001229346 0.037271798 0.045208331
0.001180783 0.037135154 0.041333333
0.001261721 0.037362892 0.042624999
0.001229346 0.037271798 0.03745833
0.001132221 0.036998514 0.029708331
0.0011160329 0.036952965 0.030999998
0.001652036 0.038244925 0.024541665
0.001607558 0.038159091 0.019375
0.001785469 0.03850244 0.032291666
0.0018077069 0.038545355 0.030999998
0.001718752 0.038373679 0.020666666
0.001652036 0.038244925 0.016791666
0.001451887 0.037858658 0.047791664
0.001451887 0.037858658 0.043916665
0.001540842 0.038030334 0.050375
0.00158532 0.038116172 0.047791664
0.00158532 0.038116172 0.040041663
0.001540842 0.038030334 0.03875
0.0018077069 0.038545355 0.0077499999
0.0022302452 0.039360821 0.045208331
0.002163528 0.039232064 0.041333333
0.0022747221 0.039446659 0.042624999
0.002230244 0.039360821 0.03745833
0.002096812 0.039103307 0.029708331
0.002074573 0.039060388 0.030999998
0.002781505 0.04026733 0.024541665
0.002725753 0.040188346 0.019375
0.0029487601 0.040504277 0.032291666
0.0029766359 0.040543765 0.030999998
0.0028651331 0.040385805 0.020666666
0.002781505 0.040267326 0.016791666
0.002530623 0.039911911 0.047791664
0.002530623 0.039911911 0.043916665
0.0026421261 0.040069874 0.050375
0.0026978778 0.040148858 0.047791664
0.0026978778 0.040148858 0.040041663
0.0026421261 0.040069874 0.03875
0.0029766359 0.040543765 0.0077499999
0.0035062758 0.041294098 0.045208331
0.0034226479 0.041175622 0.041333333
0.0035620269 0.041373078 0.042624999
0.0035062758 0.041294094 0.03745833
0.003339021 0.041057147 0.029708331
0.0033111451 0.041017659 0.030999998
0.0041758381 0.042117096 0.024541665
0.0041098511 0.042046443 0.019375
0.0043737991 0.042329062 0.032291666
0.0044067921 0.042364389 0.030999998
0.0042748181 0.042223085 0.020666666
0.0041758381 0.0421171 0.016791666
0.0038788959 0.04179915 0.047791664
0.0038788959 0.04179915 0.043916665
0.0040108701 0.041940462 0.050375
0.0040768571 0.042011116 0.047791664
0.0040768571 0.042011116 0.040041663
0.0040108701 0.041940462 0.03875
0.0044067921 0.042364389 0.0077499999
0.0050336691 0.043035612 0.045208331
0.0049346881 0.042929627 0.041333333
0.0050996551 0.043106262 0.042624999
0.0050336691 0.043035608 0.03745833
0.0048357071 0.042823646 0.029708331
0.0048027141 0.042788316 0.030999998
0.0058090603 0.043759774 0.024541665
0.0057340669 0.043698765 0.019375
0.0060340399 0.043942809 0.032291666
0.0060715368 0.043973312 0.030999998
0.0059215496 0.043851286 0.020666666
0.0058090603 0.043759774 0.016791666
0.00547159 0.043485221 0.047791664
0.00547159 0.043485221 0.043916665
0.0056215767 0.043607246 0.050375
0.00569657 0.043668259 0.047791664
0.00569657 0.043668259 0.040041663
0.0056215767 0.043607246 0.03875
0.0060715359 0.043973312 0.0077499999
0.0067839734 0.044552926 0.045208331
0.0066714832 0.04446141 0.041333333
0.0068589658 0.044613935 0.042624999
0.0067839734 0.044552926 0.03745833
0.006558992 0.044369888 0.029708331
0.006521496 0.044339385 0.030999998
0.0076507502 0.045164764 0.024541665
0.007568147 0.045114532 0.019375
0.007898557 0.045315459 0.032291666
0.0079398584 0.045340575 0.030999998
0.0077746529 0.045240112 0.020666666
0.0076507502 0.045164764 0.016791666
0.007279038 0.044938721 0.047791664
0.007279038 0.044938721 0.043916665
0.0074442429 0.045039184 0.050375
0.0075268461 0.045089416 0.047791664
0.0075268461 0.045089416 0.040041663
0.0074442429 0.045039184 0.03875
0.0079398584 0.045340575 0.0077499999
0.0087245824 0.04581777 0.045208331
0.0086006783 0.045742422 0.041333333
0.0088071842 0.045868006 0.042624999
0.0087245824 0.04581777 0.03745833
0.0084767742 0.045667075 0.029708331
0.0084354738 0.045641959 0.030999998
0.0096665975 0.046305884 0.024541665
0.0095779244 0.046267372 0.019375
0.0099326167 0.046421435 0.032291666
0.0099769542 0.046440694 0.030999998
0.0097996062 0.046363663 0.020666666
0.0096665975 0.046305884 0.016791666
0.0092675686 0.046132565 0.047791664
0.0092675686 0.046132565 0.043916665
0.0094449157 0.046209596 0.050375
0.0095335888 0.046248112 0.047791664
0.0095335888 0.046248112 0.040041663
0.0094449157 0.046209596 0.03875
0.0099769542 0.046440694 0.0077499999
0.010819346 0.046806596 0.045208331
0.010686337 0.046748824 0.041333333
0.01090802 0.046845116 0.042624999
0.010819347 0.0468066 0.03745833
0.010553327 0.046691053 0.029708331
0.010508991 0.046671793 0.030999998
0.011819052 0.047161896 0.024541665
0.01172596 0.047135811 0.019375
0.012098327 0.047240142 0.032291666
0.012144873 0.04725318 0.030999998
0.01195869 0.047201019 0.020666666
0.011819053 0.047161892 0.016791666
0.011400139 0.047044519 0.047791664
0.011400139 0.047044519 0.043916665
0.011586322 0.047096688 0.050375
0.011679415 0.047122769 0.047791664
0.011679415 0.047122769 0.040041663
0.011586322 0.047096688 0.03875
0.012144873 0.04725318 0.0077499999
0.013029245 0.047500972 0.045208331
0.012889607 0.047461845 0.041333333
0.013122335 0.047527052 0.042624999
0.013029244 0.047500968 0.03745833
0.012749968 0.047422722 0.029708331
0.012703422 0.047409683 0.030999998
0.014068018 0.047716826 0.024541665
0.013972242 0.047703668 0.019375
0.014355347 0.047756325 0.032291666
0.014403235 0.047762904 0.030999998
0.014211683 0.047736578 0.020666666
0.014068018 0.047716826 0.016791666
0.013637025 0.047657594 0.047791664
0.013637025 0.047657594 0.043916665
0.013828577 0.047683917 0.050375
0.013924354 0.047697082 0.047791664
0.013924354 0.047697082 0.040041663
0.013828577 0.047683917 0.03875
0.014403233 0.047762904 0.0077499999
0.01531311 0.04788797 0.045208331
0.015169446 0.047868222 0.041333333
0.015408886 0.047901131 0.042624999
0.01531311 0.04788797 0.03745833
0.015025781 0.047848474 0.029708331
0.014977893 0.047841892 0.030999998
0.0163716 0.047960371 0.024541665
0.016274925 0.047960371 0.019375
0.016661633 0.047960371 0.032291666
0.016709972 0.047960371 0.030999998
0.016516617 0.047960371 0.020666666
0.016371602 0.047960371 0.016791666
0.015936557 0.047960371 0.047791664
0.015936557 0.047960371 0.043916665
0.016129909 0.047960371 0.050375
0.016226588 0.047960371 0.047791664
0.016226588 0.047960371 0.040041663
0.016129909 0.047960371 0.03875
0.01670997 0.047960371 0.0077499999
0.0176284 0.047960371 0.045208331
0.017483383 0.047960371 0.041333333
0.017725077 0.047960371 0.042624999
0.0176284 0.047960371 0.03745833
0.017338367 0.047960371 0.029708331
0.017290032 0.047960371 0.030999998
0.018686894 0.04788797 0.024541665
0.018591115 0.047901131 0.019375
0.01897422 0.047848474 0.032291666
0.019022111 0.047841892 0.030999998
0.018830555 0.047868222 0.020666666
0.018686892 0.04788797 0.016791666
0.018255897 0.047947206 0.047791664
0.018255897 0.047947206 0.043916665
0.018447453 0.047920879 0.050375
0.018543229 0.047907714 0.047791664
0.018543229 0.047907714 0.040041663
0.018447453 0.047920879 0.03875
0.019022111 0.047841892 0.0077499999
0.019931983 0.047716826 0.045208331
0.019788319 0.047736578 0.041333333
0.02002776 0.047703668 0.042624999
0.019931983 0.047716826 0.03745833
0.019644653 0.047756325 0.029708331
0.019596767 0.047762904 0.030999998
0.020970756 0.047500968 0.024541665
0.020877667 0.047527052 0.019375
0.021250034 0.047422722 0.032291666
0.021296579 0.047409683 0.030999998
0.021110395 0.047461845 0.020666666
0.020970756 0.047500972 0.016791666
0.020551845 0.047618348 0.047791664
0.020551845 0.047618348 0.043916665
0.020738028 0.047566179 0.050375
0.020831119 0.047540095 0.047791664
0.020831119 0.047540095 0.040041663
0.020738028 0.047566179 0.03875
0.021296579 0.047409683 0.0077499999
0.02218095 0.047161892 0.045208331
0.022041313 0.047201019 0.041333333
0.022274042 0.047135811 0.042624999
0.02218095 0.047161896 0.03745833
0.021901676 0.047240142 0.029708331
0.021855131 0.04725318 0.030999998
0.023180656 0.0468066 0.024541665
0.023091981 0.046845116 0.019375
0.023446674 0.046691053 0.032291666
0.023491012 0.046671793 0.030999998
0.023313668 0.046748824 0.020666666
0.023180656 0.046806596 0.016791666
0.022781627 0.046979919 0.047791664
0.022781627 0.046979919 0.043916665
0.022958973 0.046902888 0.050375
0.023047645 0.046864372 0.047791664
0.023047645 0.046864372 0.040041663
0.022958973 0.046902888 0.03875
0.023491012 0.046671793 0.0077499999
0.024333404 0.046305884 0.045208331
0.024200393 0.046363663 0.041333333
0.024422079 0.046267372 0.042624999
0.024333404 0.046305884 0.03745833
0.024067387 0.046421435 0.029708331
0.024023049 0.046440694 0.030999998
0.025275419 0.04581777 0.024541665
0.025192818 0.045868006 0.019375
0.025523229 0.045667075 0.032291666
0.025564529 0.045641959 0.030999998
0.025399322 0.045742422 0.020666666
0.02527542 0.04581777 0.016791666
0.024903709 0.046043817 0.047791664
0.024903709 0.046043817 0.043916665
0.025068913 0.045943353 0.050375
0.025151515 0.045893122 0.047791664
0.025151515 0.045893122 0.040041663
0.025068913 0.045943353 0.03875
0.025564529 0.045641959 0.0077499999
0.02634925 0.045164764 0.045208331
0.026225349 0.045240112 0.041333333
0.026431855 0.045114532 0.042624999
0.026349252 0.045164764 0.03745833
0.026101444 0.045315459 0.029708331
0.026060142 0.045340575 0.030999998
0.027216028 0.044552926 0.024541665
0.027141035 0.044613935 0.019375
0.02744101 0.044369888 0.032291666
0.027478505 0.044339385 0.030999998
0.027328517 0.04446141 0.020666666
0.027216028 0.044552926 0.016791666
0.02687856 0.044827476 0.047791664
0.02687856 0.044827476 0.043916665
0.027028546 0.044705451 0.050375
0.027103538 0.044644441 0.047791664
0.027103538 0.044644441 0.040041663
0.027028546 0.044705451 0.03875
0.027478505 0.044339385 0.0077499999
0.028190942 0.043759774 0.045208331
0.028078454 0.043851286 0.041333333
0.028265936 0.043698765 0.042624999
0.028190942 0.043759774 0.03745833
0.027965961 0.043942809 0.029708331
0.027928466 0.043973312 0.030999998
0.028966332 0.043035608 0.024541665
0.028900344 0.043106262 0.019375
0.029164296 0.042823646 0.032291666
0.029197289 0.042788316 0.030999998
0.029065315 0.042929627 0.020666666
0.028966332 0.043035612 0.016791666
0.028669391 0.043353554 0.047791664
0.028669391 0.043353554 0.043916665
0.028801365 0.043212242 0.050375
0.028867351 0.043141589 0.047791664
0.028867351 0.043141589 0.040041663
0.028801365 0.043212242 0.03875
0.029197289 0.042788316 0.0077499999
0.029824166 0.0421171 0.045208331
0.029725181 0.042223085 0.041333333
0.029890152 0.042046443 0.042624999
0.029824166 0.042117096 0.03745833
0.029626202 0.042329062 0.029708331
0.029593209 0.042364389 0.030999998
0.030493727 0.041294094 0.024541665
0.030437974 0.041373078 0.019375
0.030660979 0.041057147 0.032291666
0.030688858 0.041017659 0.030999998
0.030577354 0.041175622 0.020666666
0.030493727 0.041294098 0.016791666
0.030242844 0.041649513 0.047791664
0.030242844 0.041649513 0.043916665
0.030354347 0.041491549 0.050375
0.0304101 0.041412566 0.047791664
0.0304101 0.041412566 0.040041663
0.030354347 0.041491549 0.03875
0.030688858 0.041017659 0.0077499999
0.031218497 0.040267326 0.045208331
0.031134868 0.040385805 0.041333333
0.031274248 0.040188346 0.042624999
0.031218497 0.04026733 0.03745833
0.031051243 0.040504277 0.029708331
0.031023365 0.040543765 0.030999998
0.031769756 0.039360821 0.024541665
0.03172528 0.039446659 0.019375
0.031903192 0.039103307 0.032291666
0.031925429 0.039060388 0.030999998
0.031836472 0.039232064 0.020666666
0.031769756 0.039360821 0.016791666
0.031569608 0.039747093 0.047791664
0.031569608 0.039747093 0.043916665
0.031658564 0.039575417 0.050375
0.03170304 0.039489578 0.047791664
0.03170304 0.039489578 0.040041663
0.031658564 0.039575417 0.03875
0.031925429 0.039060388 0.0077499999
0.03234797 0.038244925 0.045208331
0.03228125 0.038373679 0.041333333
0.03239245 0.038159091 0.042624999
0.03234797 0.038244925 0.03745833
0.032214534 0.03850244 0.029708331
0.032192297 0.038545355 0.030999998
0.032770652 0.037271798 0.024541665
0.03273828 0.037362892 0.019375
0.032867782 0.036998514 0.032291666
0.032883968 0.036952965 0.030999998
0.032819219 0.037135154 0.020666666
0.032770652 0.037271798 0.016791666
0.032624971 0.037681725 0.047791664
0.032624971 0.037681725 0.043916665
0.032689717 0.037499536 0.050375
0.032722093 0.037408441 0.047791664
0.032722093 0.037408441 0.040041663
0.032689717 0.037499536 0.03875
0.032883968 0.036952965 0.0077499999
0.033191536 0.036087561 0.045208331
0.033142973 0.036224205 0.041333333
0.033223908 0.035996467 0.042624999
0.033191536 0.036087561 0.03745833
0.033094406 0.036360849 0.029708331
0.03307822 0.036406394 0.030999998
0.033477776 0.035065942 0.024541665
0.033458106 0.035160597 0.019375
0.033536788 0.034781981 0.032291666
0.033546623 0.034734655 0.030999998
0.03350728 0.034923963 0.020666666
0.033477776 0.035065942 0.016791666
0.033389267 0.035491891 0.047791664
0.033389267 0.035491891 0.043916665
0.033428606 0.035302579 0.050375
0.033448271 0.035207924 0.047791664
0.033448271 0.035207924 0.040041663
0.033428606 0.035302579 0.03875
0.033546619 0.034734651 0.0077499999
0.033733483 0.033835433 0.045208331
0.033703979 0.033977412 0.041333333
0.033753149 0.033740778 0.042624999
0.033733483 0.033835433 0.03745833
0.033674467 0.034119394 0.029708331
0.033664636 0.03416672 0.030999998
0.033877954 0.032784346 0.017437501
0.033871353 0.032880798 0.0135625
0.033897743 0.032494996 0.021312499
0.03390104 0.032446768 0.019375
0.033887848 0.032639671 0.011625
0.03387795 0.032784346 0.0096875001
0.03384826 0.033218376 0.050375
0.033861458 0.033025473 0.050375
0.033841662 0.033314832 0.050375
0.03390104 0.032446768 0.0038749999
0.033963714 0.031530485 0.022604166
0.033953819 0.03167516 0.020666666
0.033970311 0.031434033 0.021312499
0.033963714 0.031530485 0.018729165
0.033943925 0.031819835 0.014854166
0.033940621 0.031868063 0.015499999
0.033990916 0.030734139 0.012004972
0.03399257 0.030782478 0.0094699766
0.033985965 0.030589124 0.015734958
0.033985142 0.030564955 0.015064954
0.033988442 0.030661631 0.009994965
0.03399092 0.030734139 0.008129972
0.033998348 0.030951662 0.023847496
0.033998348 0.030951662 0.021909997
0.033995043 0.030854985 0.025042484
0.033993393 0.030806646 0.02370248
0.033993393 0.030806646 0.019827479
0.033995043 0.030854985 0.019229984
0.033955459 0.030276276 0.0037299851
0.033964507 0.030057626 0.021758245
0.033966988 0.030130135 0.019893253
0.033952966 0.029913062 0.020514915
0.033949669 0.029913288 0.018028259
0.033954624 0.030058302 0.014298275
0.033960395 0.030130584 0.01491994
0.033861451 0.02887762 0.011546997
0.033856504 0.028829506 0.009108454
0.033861451 0.02887762 0.015132643
0.033856504 0.028829506 0.014486923
0.033846609 0.02873328 0.0096098352
0.033846609 0.02873328 0.0078170132
0.033928223 0.029527145 0.02295346
0.033920802 0.029454974 0.021088468
0.033923279 0.029479031 0.024100563
0.033913385 0.029382804 0.022809122
0.033898544 0.029238468 0.019079136
0.033901017 0.029262524 0.018505584
0.033796463 0.028423019 0.011092396
0.033804685 0.028470682 0.0087496303
0.033771813 0.028280029 0.014535053
0.0337677 0.028256197 0.013913613
0.03378414 0.028351525 0.0092280786
0.033796467 0.028423019 0.007506751
0.033833444 0.028637504 0.02206382
0.033833444 0.028637504 0.020270996
0.033817008 0.028542178 0.02316371
0.033808794 0.028494515 0.02192083
0.033808794 0.028494515 0.018335182
0.033817008 0.028542178 0.01778524
0.000102269 0.029408101 0.022303935
0.000113813 0.029263537 0.023451038
8.2475999e-05 0.029697455 0.018718289
8.4123996e-05 0.029697567 0.01807257
0.000107211 0.02940844 0.020366773
0.000117107 0.029263761 0.022159595
7.8363999e-05 0.029624496 0.023166165
7.0943999e-05 0.029696668 0.023238335
5.6106001e-05 0.029841008 0.023382673
6.6049997e-06 0.030806646 0.012077481
4.9539999e-06 0.030854985 0.0095424838
6.6049997e-06 0.030806646 0.015952481
4.9539999e-06 0.030854985 0.015354985
1.651e-06 0.030951662 0.010284995
1.651e-06 0.030951662 0.0083474955
2.8898001e-05 0.030154079 0.023049911
2.6420999e-05 0.030226585 0.021184919
2.7247001e-05 0.030202415 0.024389915
2.3944e-05 0.030299094 0.023194926
1.899e-05 0.03044411 0.019464942
1.9816e-05 0.03041994 0.018794939
3.9585e-05 0.031578708 0.0038749999
6.5970003e-06 0.031096451 0.022604166
6.5970003e-06 0.031096451 0.020666666
1.9792e-05 0.031289354 0.021312499
2.639e-05 0.031385805 0.018729165
2.639e-05 0.031385805 0.014854166
1.9792e-05 0.031289354 0.015499999
0.000151742 0.033218376 0.011625
0.00015834 0.033314832 0.011625
0.00013854701 0.033025473 0.011625
5.6078999e-05 0.031819839 0.0251875
0.00026652199 0.033835433 0.024541665
0.000246852 0.033740778 0.019375
0.00032552998 0.034119394 0.032291666
0.00033536501 0.03416672 0.030999998
0.000296026 0.033977412 0.020666666
0.00026652199 0.033835433 0.016791666
0.00017800901 0.033409484 0.047791664
0.00017800901 0.033409484 0.043916665
0.00021734799 0.033598796 0.050375
0.000237018 0.033693451 0.047791664
0.000237018 0.033693451 0.040041663
0.00021734799 0.033598796 0.03875
0.018617196 0.010842 0.014086618
0.018761532 0.0090870457 0.014101458
0.018737476 0.0087896083 0.014098984
0.018545024 0.0099496841 0.0140792
0.01885776 0.011161694 0.014111349
0.018929929 0.011169115 0.014118768
0.019074269 0.011183954 0.014133608
0.015382807 0.010842 0.04791338
0.015238468 0.0090870457 0.047898542
0.015262524 0.0087896083 0.047901016
0.015454975 0.0099496841 0.047920801
0.015142241 0.011161694 0.047888648
0.015070072 0.011169115 0.047881231
0.014925733 0.011183954 0.047866389
3.9631999e-05 0.0068383049 0.030758308
3.9631999e-05 0.0055949767 0.030564955
3.9631999e-05 0.010568291 0.031048341
3.9631999e-05 0.011189954 0.030999999
3.9631999e-05 0.0087032989 0.030613292
3.9631999e-05 0.0068383049 0.030468278
3.9631999e-05 0.0037299851 0.031580061
0.000603361 0.0057995319 0.035343122
0.000551195 0.0047450708 0.035156935
0.00068160996 0.0089629125 0.035622399
0.000668569 0.0094901426 0.035575852
0.00056423596 0.0073812217 0.035203487
0.00052511197 0.0057995319 0.035063852
0.00082506699 0.003163381 0.036134403
0.00077958201 0.019691918 0.035996549
0.00082029699 0.020700276 0.036135737
0.00070133299 0.016528536 0.035717275
0.00070292299 0.015955206 0.035716828
0.00078435201 0.017971925 0.035995208
0.00082347705 0.019553615 0.03613485
0.00071214995 0.020472698 0.035789538
0.000690202 0.020541849 0.035720389
0.00064630702 0.020680148 0.035582092
0.00040137698 0.010713778 0.034646716
0.00038992599 0.0084656654 0.034599725
0.00040137698 0.014156434 0.034646716
0.00038992599 0.013629649 0.034599725
0.00036702299 0.0091334237 0.034505744
0.00036702299 0.007412096 0.034505744
0.00055597199 0.020407364 0.035281099
0.00053879502 0.018756524 0.035210613
0.00054452097 0.021601906 0.035234109
0.000521618 0.020548336 0.035140131
0.00048726299 0.017246654 0.034999155
0.00049298903 0.016649384 0.035022646
0.000276587 0.003442656 0.033884093
0.000342407 0.020082159 0.034362976
0.000342407 0.018360833 0.034362976
0.00031607898 0.018934606 0.034171421
0.000302915 0.016639503 0.034075644
0.000302915 0.013196847 0.034075644
0.00031607898 0.013770623 0.034171421
0.000119492 0.011163892 0.032807846
0.000101382 0.0088211251 0.03266396
0.000134331 0.014749537 0.032952186
0.00012364 0.014199592 0.032880463
8.7419001e-05 0.0095140589 0.032592688
7.9999998e-05 0.0077212364 0.032520518
0.00027495102 0.021277374 0.03388432
0.00025520398 0.019556046 0.033740655
0.00027167902 0.022520253 0.033884771
0.00025029702 0.021420365 0.033741329
0.00021080401 0.017977707 0.033453997
0.00021244001 0.017356269 0.033453774
5.9416001e-05 0.011619167 0.032352574
5.4469998e-05 0.0091806231 0.032304458
5.9416001e-05 0.015349152 0.032352574
5.4469998e-05 0.0147756 0.032304458
4.4578002e-05 0.0098985136 0.032208238
4.4578002e-05 0.0080335205 0.032208238
0.00012619 0.022159595 0.033002097
0.00011877 0.020366773 0.032929927
0.000121243 0.023451038 0.032953989
0.000111351 0.022303935 0.032857757
9.6513002e-05 0.018718289 0.032713421
9.8985998e-05 0.01807257 0.032737475
0.002383153 0.0048575159 0.039605826
0.00228269 0.0039743311 0.039440624
0.0025338479 0.00750707 0.039853636
0.002508732 0.0079486631 0.039812334
0.0023078059 0.0061822929 0.039481927
0.0022324582 0.0048575159 0.03935802
0.002810122 0.0026495541 0.040307954
0.0027291318 0.016500691 0.040187478
0.00280589 0.017343434 0.040310524
0.0025784359 0.013851137 0.039939672
0.0025798471 0.0133691 0.039938811
0.002733364 0.015054585 0.040184908
0.002808712 0.01637936 0.040308811
0.00260835 0.01716472 0.04000634
0.00256856 0.017225387 0.039945677
0.0024889801 0.017346716 0.039824348
0.0020007719 0.0090063419 0.038989741
0.001977067 0.0071169273 0.038947586
0.0020007719 0.011903704 0.038989741
0.001977067 0.011462969 0.038947586
0.001929657 0.0076841386 0.038863268
0.001929657 0.006235458 0.038863268
0.002320789 0.017129278 0.039558891
0.0022852321 0.015743837 0.039495651
0.0022970841 0.018137224 0.039516732
0.0022496742 0.017255757 0.03943241
0.00217856 0.014484871 0.03930594
0.002190412 0.013980898 0.039327018
0.0016748559 0.002897362 0.03828907
0.0018674361 0.016901275 0.038732432
0.0018674361 0.015452595 0.038732432
0.001790404 0.01593549 0.038555089
0.0017518881 0.014003915 0.038466416
0.0017518881 0.011106553 0.038466416
0.001790404 0.011589447 0.038555089
0.0012332191 0.0094152121 0.037295114
0.00117696 0.0074399589 0.037161447
0.0012864501 0.01244361 0.0374301
0.0012568049 0.011982556 0.03736392
0.001144286 0.0080320491 0.03709659
0.001117671 0.0065178499 0.037029099
0.001673341 0.017910743 0.038289726
0.001615567 0.016462063 0.038156718
0.001670312 0.018963886 0.038291045
0.001611023 0.018041778 0.038158692
0.0014954751 0.015144417 0.037892669
0.001496989 0.014617844 0.037892014
0.0010525399 0.0098373946 0.036872931
0.001034796 0.0077734692 0.036827937
0.0010525399 0.013000776 0.036872931
0.001034796 0.012518539 0.036827937
0.00099930901 0.0083906883 0.036737949
0.00099930901 0.0068089971 0.036737949
0.001292076 0.018720116 0.037480354
0.001265461 0.017205916 0.037412863
0.001274333 0.019819569 0.037435364
0.001238846 0.018855099 0.037345376
0.001185616 0.015826698 0.03721039
0.001194487 0.015276972 0.037232887
0.0052470113 0.0040821251 0.04323028
0.0054589747 0.0063087381 0.043428242
0.0054236478 0.0066798399 0.043395247
0.0051410277 0.0051954323 0.043131303
0.005847577 0.0022266139 0.043791167
0.0057370858 0.01385793 0.043697018
0.0055251224 0.011631317 0.043499056
0.0055262488 0.011228427 0.043497849
0.0057404679 0.012649263 0.043693397
0.0055719144 0.014403859 0.043555185
0.0055172318 0.014451539 0.043507505
0.005407868 0.014546899 0.043412145
0.0047125909 0.0075410181 0.042740203
0.0047125909 0.0099655911 0.042740203
0.0046783909 0.0095956968 0.042706005
0.0046099899 0.0064313309 0.042637605
0.0051229941 0.013192049 0.043150607
0.005071694 0.014455637 0.043099307
0.004969093 0.012133664 0.042996708
0.004986194 0.011712468 0.043013807
0.004209721 0.002424574 0.042153444
0.004514778 0.012931063 0.042528413
0.0043317443 0.011718777 0.042303432
0.0043317443 0.0092942016 0.042303432
0.0043927561 0.0096982988 0.042378426
0.003516295 0.0078783184 0.041315503
0.0036039702 0.010412256 0.041431118
0.003557571 0.010026388 0.041375395
0.0033770981 0.0067207133 0.041148331
0.00420844 0.014987997 0.042154487
0.0041169217 0.013775709 0.042041995
0.0042058779 0.015869096 0.04215657
0.00411308 0.015097359 0.042045124
