# .PCD v0.7 - Point Cloud Data file format
VERSION 0.7
FIELDS x y z
SIZE 4 4 4
TYPE F F F
COUNT 1 1 1
WIDTH 1091
HEIGHT 1
VIEWPOINT 0 0 0 1 0 0 0
POINTS 1091
DATA ascii
-0.016081067 0.0011772513 0.031093627
-0.015891584 0.0024241526 0.0057913829
-0.016527345 0.0002011098 0.0035488289
-0.012910464 0.0073253345 0.03110761
-0.011447179 0.0091267675 0.012531897
-0.0054266769 0.01262988 0.03108974
-0.0066028275 0.012287057 0.015687309
-0.009533098 0.010491909 0.031103814
0.0014244318 0.013585238 0.031051828
0.0013359245 0.01366281 0.017012689
0.0059589837 0.012652208 0.031018086
0.0058645383 0.012734985 0.016037043
0.008997906 0.011256114 0.014515761
0.012576321 0.0083576236 0.011555357
0.014032686 0.0065706335 0.0097364001
0.015876217 0.0034261625 0.030904585
0.015723487 0.0035600234 0.0066782497
0.016760791 0.00026638992 0.0033393316
0.01690579 -0.0030012131 -0.031139607
0.015638096 0.0036348663 -0.0068669114
0.01626656 0.0015840176 -0.03111024
0.016717182 0.00030460954 -0.0035779309
0.014413957 0.0058267098 -0.031075118
0.010721309 0.010074934 -0.013214828
0.011485375 0.0094122048 -0.031036844
0.012430023 0.0084858462 -0.011650639
0.0056625772 0.012911996 -0.015998704
0.0022777524 0.013733133 -0.016796084
0.0033327732 0.013616376 -0.030962219
-0.0011981037 0.013845681 -0.016892264
-0.0035845814 0.013602811 -0.030918686
-0.0067994203 0.012459363 -0.015496785
-0.0088506993 0.01138198 -0.014422303
-0.010735214 0.010032857 -0.013079794
-0.012417858 0.0084371176 -0.011494258
-0.011720927 0.0093666967 -0.030890798
-0.015699144 0.0037075728 -0.030896986
-0.015056509 0.0046287533 -0.0077162329
-0.016305406 0.0013738759 -0.0044916701
-0.016898051 -0.0032391697 7.3282048e-05
-0.017093476 -0.0030678883 -0.030925633
-0.016758766 -0.00091127865 -0.0022296477
-0.01645425 -0.0076531172 -0.030955
-0.014601646 -0.011895809 -0.030990122
-0.011673065 -0.015481304 -0.031028396
-0.011282214 -0.015823871 0.030969435
-0.0074948557 -0.018486243 0.030930849
-0.0078857066 -0.018143676 -0.031066982
-0.0035204608 -0.019685477 -0.031103021
-0.00083042122 -0.020339474 0.030878594
0.0033968929 -0.01967191 -0.031146554
0.0060206912 -0.019384112 0.030840682
0.0097362585 -0.016903576 -0.031171223
0.014838835 -0.012181409 0.030824887
0.015511459 -0.0097766779 -0.031168254
0.016675079 -0.007931482 0.030836795
0.017101215 -0.0031724945 -0.00014069118
-0.016702626 -0.003410453 0.031072197
0.010448609 0.0026974156 -0.03106741
0.011263222 -0.0069086216 -0.031125626
0.0028295107 0.0086038299 -0.030986743
0.0076980162 0.012074577 -0.030998258
-0.010636299 -0.008766517 -0.03099783
-0.011926119 -0.0050328635 -0.030969067
-0.0066377297 -0.013093248 -0.031046944
0.0093898326 -0.010386407 -0.031133031
0.013113625 -0.013737001 -0.031175019
-0.0095775221 0.0043173041 -0.030932209
-0.0079438537 0.012043903 -0.030899817
-0.0062855799 0.0066558383 0.031062145
0.0068795942 -0.013410073 0.030868275
0.01012711 -0.017246142 0.030826606
-0.00067088753 -0.01533787 0.030905224
-0.011542877 -0.0014252253 0.031050637
0.0012649 0.0085836351 0.031025197
-0.0026711626 0.0082497112 0.031048166
-0.016063398 -0.0079956837 0.031042831
-0.011045048 -0.0072957017 0.031015063
-0.014210794 -0.012238376 0.031007709
-0.0062468788 -0.013435815 0.030950887
0.01083946 0.002354851 0.03093042
0.013463147 0.0073770545 0.03094163
0.006840894 0.0066815801 0.030979535
0.010073608 0.01053036 0.030980421
0.010861462 -0.0090676919 0.030867167
0.01213689 -0.0053290054 0.030879784
0.01729664 -0.0033437777 0.030858224
-0.016925445 0.027766787 -0.00091538765
-0.013867293 0.0066244956 -0.0096952375
-0.0046477709 0.027875086 -0.016202198
-6.5298751e-05 0.027887564 -0.016861448
0.0045251213 0.027893076 -0.016259925
0.0087830387 0.027891211 -0.014442252
0.013909083 0.0066789668 -0.0098700467
0.013868256 0.027875038 -0.0097526703
0.01602407 0.027856503 -0.0056556072
0.017009186 0.027820485 0.0011913013
0.015184896 0.027780021 0.0078637972
0.01253896 0.027753888 0.011662766
0.010887574 0.0099292099 0.013158433
0.0069128368 0.027720764 0.01568738
0.00014903955 0.027699707 0.017137365
-0.003284229 0.013339564 0.016724078
-0.008667565 0.01122147 0.014626939
-0.012308924 0.027705159 0.011819145
-0.013038257 0.0074373391 0.010836815
-0.014384564 0.0055496562 0.0089392364
-0.015002546 0.027720822 0.0080537796
-0.006632505 0.027694201 0.015772628
-0.0018586051 0.027724363 0.01198631
0.0020915791 0.02773211 0.011961449
-0.01157211 0.027754547 0.0031568892
-0.0072688246 0.027726859 0.0096536968
-3.377907e-05 0.027859937 -0.01186162
0.0074719582 0.027755767 0.0095609259
-0.011609251 0.027787101 -0.0027345549
-0.016580394 0.027741885 0.0037013385
-0.0039259894 0.027848706 -0.011186933
-0.0088824322 0.027856568 -0.014331074
-0.012455219 0.027833384 -0.011386851
-0.015101155 0.027807249 -0.0075878818
0.012129281 -0.0013788026 0.030901657
0.011747029 -0.00025352277 0.0028551221
0.011111725 0.001609344 0.0047440063
0.00751343 0.0062258225 0.0094417036
0.0040475782 0.0080887079 0.011354033
0.00015411526 0.0087276567 0.012032326
-0.0037450399 0.0080734268 0.011403076
-0.0064176749 0.0067716148 0.010108877
-0.0091866711 0.0039747395 0.03106562
-0.011230921 0.00064670853 0.0039555561
-0.011933728 -0.0010826606 -0.030947192
-0.011280047 0.00068976544 -0.003836954
-0.0087938039 0.0049489997 -0.0080602337
-0.0048091039 0.0078345221 -0.010931412
-0.0066764308 0.006998403 -0.030935684
-0.0019709272 0.0086918231 -0.011791652
-0.0030620135 0.0085922759 -0.030949665
0.0019792579 0.0086995699 -0.011816515
0.0048313793 0.0078534279 -0.010992082
0.0080163516 0.0058099218 -0.031034881
0.010093343 0.003413396 -0.0066237282
0.011419075 0.00073427893 -0.0039798114
0.011905894 -0.0030110199 -0.031108139
0.012064675 -0.0021969229 0.00088743865
0.0064887423 -0.013067506 -0.031129556
0.003265176 -0.015003942 0.030882254
0.0028743241 -0.014661375 -0.031115575
-0.0010617394 -0.014995303 -0.031092608
-0.009158277 -0.010766115 0.030983992
-0.011898158 -0.0032293648 4.1814521e-05
-0.011750754 -0.0012430307 -0.0019233394
-0.011725851 -0.0012648553 0.0020267889
-0.0099625345 0.027737672 0.00676433
-0.0093356324 0.0041052978 0.0074370001
-0.010426871 0.0024531856 0.0057755094
0.010176094 0.0033408664 0.0065025669
0.010129025 0.027777072 0.0066378843
0.011692991 0.027800171 0.0030104723
0.01165585 0.027832724 -0.0028809737
0.011921404 -0.0011966079 -0.0020723213
0.0088631865 0.0049836263 -0.0081713591
0.010046273 0.0278496 -0.0064884108
0.0073525645 0.027860411 -0.0093777794
0.0038666297 0.027863987 -0.011235973
-0.0073882192 0.027831504 -0.0092850085
-0.0099982172 0.0033739954 -0.0064972844
-0.010045286 0.027810199 -0.006361967
-0.016660318 -0.0018142201 0.021518689
-0.015616794 0.0026803743 0.023022994
-0.015811225 0.002366757 0.014586505
-0.016441224 0.00014298223 0.013104649
-0.013397846 0.0067299511 0.024349988
-0.013675588 0.0064602271 0.01728452
-0.014883585 0.0044856612 0.015988503
-0.010168049 0.010034168 0.025401251
-0.010513333 0.0098325741 0.019464467
-0.012209736 0.0082536638 0.018450417
-0.006166934 0.012347959 0.026098818
-0.0065589836 0.012233684 0.020964675
-0.0016912511 0.013499731 0.026390955
-0.0021058209 0.013485484 0.021673877
0.0025460497 0.013468691 0.026324499
0.0017501488 0.013598357 0.021650191
0.0069967881 0.012232613 0.02587324
0.0062553454 0.012566938 0.020885732
0.010945803 0.0098430701 0.02503328
0.010308972 0.010361494 0.019336119
0.012070559 0.0088665113 0.018300733
0.014100214 0.0064772777 0.023866914
0.013610397 0.0071455836 0.017116288
0.014899803 0.0052307639 0.015804857
0.016226074 0.0023848638 0.022460647
0.015914766 0.00315772 0.014390867
0.01663637 0.00096507743 0.012900662
0.016857537 -0.001511056 -0.021569008
0.015796674 0.0029958691 -0.023023469
0.015992491 0.0025895908 -0.014590966
0.016631084 0.00035198405 -0.013133811
0.013562113 0.0070513152 -0.024305576
0.013841044 0.0067044292 -0.017243525
0.015056664 0.0047203023 -0.015969431
0.010319589 0.010354506 -0.025320249
0.010665772 0.010088507 -0.019386055
0.012368266 0.008505011 -0.018389514
0.0063095745 0.012660448 -0.025992239
0.0067021716 0.012490832 -0.020859664
0.0018294808 0.013798137 -0.026271695
0.0022442043 0.013733246 -0.021555057
-0.0024076672 0.013750039 -0.026205676
-0.0016121743 0.013830995 -0.021530205
-0.0068536 0.012491903 -0.025768233
-0.0061133429 0.012773825 -0.020777309
-0.010793365 0.010078009 -0.024954868
-0.010158413 0.010535756 -0.019252302
-0.011914205 0.0090226252 -0.018233569
-0.013934759 0.0066873785 -0.023825916
-0.013447377 0.0072827637 -0.017068295
-0.01472937 0.0053485855 -0.015778178
-0.016044809 0.0025714841 -0.022465108
-0.015736306 0.0032561161 -0.014387256
-0.016449425 0.0010443404 -0.012921439
-0.016974069 -0.0038964786 -0.02059727
-0.016953165 -0.0027932134 -0.010644326
0.016960548 -0.0019508339 -0.011625109
-0.016352493 -0.0071245804 0.010382071
-0.016063567 -0.0084955469 -0.010294722
-0.014698213 -0.011438198 0.010347808
-0.014024141 -0.012640968 -0.010330485
-0.011941471 -0.015145484 0.010309944
-0.010941908 -0.016082399 -0.01036893
-0.0082867183 -0.017971504 0.010271288
-0.0070454599 -0.0185646 -0.010407211
-0.004005013 -0.019706655 0.010234708
-0.0026237816 -0.019903474 -0.010442482
0.00058608688 -0.020222254 0.010202916
0.0019951947 -0.019999731 -0.010472136
0.0051460918 -0.019480046 0.01017827
0.0064688977 -0.018846229 -0.010493966
0.0093367938 -0.017535094 0.010162596
0.010465538 -0.016528506 -0.010506352
0.012847397 -0.014531646 0.01015706
0.013688695 -0.013218477 -0.010508383
0.015417533 -0.01069244 0.01016207
0.015899329 -0.0091616139 -0.010499904
0.016856583 -0.0063022263 0.010177257
0.017180203 -0.0040583871 0.020521313
0.017154837 -0.0028450526 0.010581199
-0.016761849 -0.0021442398 0.011570528
0.013084397 0.00047726929 -0.031096296
0.0062844269 0.0090209022 -0.031006219
-0.0045553129 -0.015923303 -0.03107571
-0.012602785 0.002401039 -0.030923726
-0.004164462 -0.016265869 0.03092212
-0.012211934 0.0020584743 0.031074105
0.0047584753 0.0095116328 0.031008299
0.0020962842 0.018304985 0.016954403
-0.0019763317 0.018483961 -0.016782584
-0.016901409 0.017816056 -0.00019707717
-0.016199823 0.019353615 -0.0047546793
-0.01629759 0.010547012 -0.0044339094
-0.016751722 0.0090316106 -0.0021711532
-0.014292189 0.02075077 -0.0089536589
-0.014488125 0.013359671 -0.0086697061
-0.015538344 0.011998713 -0.0066136289
-0.011319986 0.021903899 -0.0124826
-0.011598086 0.015710097 -0.012260767
-0.0131665 0.014604528 -0.010563849
-0.0075036492 0.022727478 -0.01507978
-0.0078418115 0.017423984 -0.014940759
-0.0031262208 0.02316043 -0.016552562
0.0033996236 0.023107121 -0.016528254
0.0041672308 0.018231016 -0.016402671
0.0077658594 0.022590324 -0.015010608
0.0084653683 0.017098175 -0.014689533
0.011560714 0.021693071 -0.01237371
0.012141721 0.015225843 -0.01188519
0.013659142 0.014053874 -0.010136044
0.014502751 0.020481905 -0.0088131186
0.014923638 0.012752877 -0.0081976335
0.015911659 0.011347087 -0.0061060879
0.016373755 0.019046655 -0.0045929123
0.016604798 0.009862693 -0.0039003547
0.016990138 0.0083273388 -0.0016215276
0.016316058 0.01936258 0.0049371682
0.016447743 0.010560509 0.0045188889
0.016907668 0.0090720225 0.002239503
0.014403149 0.020705786 0.0091513265
0.014627552 0.013319093 0.0087855402
0.015682952 0.011985046 0.0067145322
0.0114266 0.021808304 0.012692757
0.011728553 0.015618457 0.01240235
0.013301181 0.014537796 0.010693323
0.007607175 0.022588361 0.015298812
0.007965764 0.017288074 0.015101079
0.003228141 0.022988109 0.016776212
-0.003297451 0.022909934 0.016751174
-0.0040462716 0.018032599 0.016571583
-0.0076616928 0.022393161 0.015227806
-0.0083400458 0.016902249 0.01484591
-0.011453122 0.021510553 0.01258105
-0.012009222 0.015046941 0.012020927
-0.013522154 0.013888579 0.01025887
-0.014390541 0.02032757 0.0090072025
-0.014781671 0.012604267 0.0083061494
-0.015764313 0.011217931 0.0061991382
-0.016256101 0.018931948 0.0047713183
-0.016451772 0.0097553972 0.0039770883
-0.016831247 0.0082438998 0.0016813893
-0.0053394129 0.027713869 0.01267058
0.0055807382 0.027735284 0.012601854
0.012124112 -0.0019836072 0.021223053
0.011781504 -0.00031370297 0.012523158
0.010065023 0.0035030562 0.023064885
0.010206293 0.0032793861 0.014916932
0.0073189642 0.0063154325 0.023989584
0.0075431429 0.0061635133 0.016810305
0.0038049035 0.0080836564 0.024550462
0.004080642 0.0080261379 0.017998112
0.00023401901 0.0086303484 0.024698399
0.0008546263 0.0086667109 0.018347465
-0.0036535347 0.0079752207 0.024502547
-0.003069818 0.0082266219 0.018044299
-0.0071200458 0.0060960799 0.023887288
-0.0066435365 0.0065414552 0.016901832
-0.0097898617 0.0031965543 0.022919297
-0.0094792563 0.0037938338 0.015043877
-0.011373669 -0.00040914118 0.021703463
-0.011269685 0.00028150342 0.012671769
-0.011712054 -0.0040018149 0.02070377
-0.011817909 -0.0029579476 0.010706836
-0.011926022 -0.0017945915 -0.02127588
-0.010869364 0.0020039473 -0.02250701
-0.010958974 0.0016584434 -0.01378149
-0.0086379526 0.0052502975 -0.023542279
-0.0088232029 0.0049739499 -0.015918164
-0.0054735951 0.0075926706 -0.024269508
-0.0057273526 0.0074092336 -0.017453244
-0.0017191982 0.0087772328 -0.024609884
-0.0020069052 0.0087004025 -0.018220382
0.0018942729 0.0087431986 -0.024591962
0.0012824666 0.0088155866 -0.018240483
0.0056270808 0.0074684378 -0.024194976
0.0050875247 0.0077448655 -0.017519569
0.0087469909 0.0050493311 -0.023419211
0.0083452202 0.0054936577 -0.016023526
0.010915922 0.0017480217 -0.022348749
0.01070253 0.0023059063 -0.013914471
0.011917751 -0.0037265904 -0.020778475
0.0120198 -0.0027930979 -0.010770587
0.011994751 -0.0044992492 -0.00011582859
0.011845665 -0.0058555454 0.010211315
0.011554444 -0.0063820854 -0.010457156
0.010370918 -0.0095072687 0.010200433
0.0098803733 -0.0099468343 -0.010466298
0.0077903904 -0.012482312 0.010200264
0.0071395654 -0.012774911 -0.010464644
0.0043837167 -0.014458295 0.010210823
0.0036290195 -0.014559843 -0.010452377
0.00052006729 -0.015221089 0.010230966
-0.00027083606 -0.015108198 -0.010430822
-0.0033818716 -0.014688034 0.010258509
-0.004137394 -0.014360562 -0.010402313
-0.0068992665 -0.012916885 0.01029047
-0.0075516542 -0.012397956 -0.010369943
-0.0096509513 -0.010099579 0.010323385
-0.010143625 -0.0094330534 -0.010337221
-0.011338739 -0.0065414235 0.010353686
-0.011632429 -0.0057871416 -0.01030769
-0.011952357 -0.0028401092 -0.01061972
0.0016385652 0.015127825 -0.011819737
-0.0015057651 0.014990115 0.011954615
-0.011895535 0.017765513 0.00048813224
-0.011118416 0.019022081 0.0043554995
-0.01122313 0.0099891666 0.0039982554
-0.0091297524 0.020109424 0.0077596325
-0.009329834 0.012234051 0.0074650962
-0.0061450433 0.020909712 0.010331636
-0.0064166533 0.013925543 0.010125523
-0.0024877302 0.021336224 0.011792798
0.0030665267 0.02127965 0.011689622
0.0037185252 0.014731851 0.011487149
0.0066668019 0.020766549 0.01008084
0.0072313938 0.013592982 0.0096763
0.0095513165 0.019895185 0.0073883962
0.0099694822 0.011753459 0.0068194214
0.011407496 0.018759981 0.0039040484
0.011636075 0.0094126221 0.0032260995
0.011235772 0.019112384 -0.0041762311
0.011375291 0.010076538 -0.0039190408
0.0092428625 0.020229694 -0.0075681526
0.0094732847 0.01235237 -0.0073608514
0.0062550381 0.021046912 -0.010131205
0.0065535568 0.014061986 -0.010002444
0.0025960803 0.021475488 -0.011587629
-0.0029579168 0.021396378 -0.011485206
-0.0035846829 0.014844274 -0.011355272
-0.0065561533 0.020851627 -0.0098822806
-0.0070931017 0.013671895 -0.0095572192
-0.0094372369 0.019939391 -0.007199714
-0.0098240208 0.011790313 -0.0067209471
-0.011288952 0.018758528 -0.0037281867
-0.011481504 0.0094034225 -0.0031538028
-0.016639164 -0.0010161046 0.016741937
-0.015384657 0.0034319386 0.018987676
-0.012974361 0.0073813368 0.020972213
-0.0095870327 0.010539182 0.022548359
-0.0054738997 0.012671268 0.02359922
0.0042416565 0.01317792 0.023716355
0.0085433908 0.011494063 0.022757668
0.012226274 0.0087136291 0.021258172
0.015017176 0.0050428323 0.019329078
0.016010402 0.0029565711 0.018247176
0.016709102 0.00075392053 0.017113462
0.016833412 -0.00076597929 -0.016783712
0.015561732 0.0037017968 -0.018980077
0.013136191 0.0076636169 -0.020920807
0.0097366925 0.010825653 -0.022461953
0.0056153554 0.012953385 -0.023489224
-0.0041020848 0.01342387 -0.023600945
-0.0083972765 0.01171294 -0.022661062
-0.012069393 0.0089019071 -0.021192534
-0.014846091 0.0051992461 -0.01930427
-0.015831253 0.0030973181 -0.018245557
-0.016521435 0.0008795727 -0.017136322
-0.016995763 -0.003153529 -0.015426176
0.016926555 -0.0042444095 -0.015646061
-0.016258823 -0.0078244023 4.3915585e-05
-0.01440622 -0.012067094 8.7935477e-06
-0.01147764 -0.015652589 -2.9480085e-05
-0.0076902816 -0.018314961 -6.8066642e-05
-0.0033250358 -0.019856762 -0.0001041051
0.0012943447 -0.02016364 -0.00013492443
0.0058252662 -0.019212831 -0.00015823357
0.0099316854 -0.017074861 -0.00017230771
0.013309052 -0.013908286 -0.00017610379
0.015706884 -0.0099479631 -0.00016933866
0.017198926 -0.003258137 0.015358767
-0.016718941 -0.0044820532 0.015565831
-0.016896706 0.012847101 -0.00099800713
-0.015987733 0.015140371 -0.005524056
-0.013887706 0.017222531 -0.0096365493
-0.010752369 0.018939156 -0.013030475
-0.0068142591 0.020162934 -0.015454123
0.00052839331 0.020868897 -0.016884154
0.0067310818 0.020189498 -0.015539372
0.010704154 0.018981235 -0.013165509
0.01388867 0.017277002 -0.0098113585
0.01510861 0.0162772 -0.0078420397
0.016048444 0.015203196 -0.0057256725
0.016690658 0.014074998 -0.0035016779
0.017023297 0.012913621 -0.0012114812
0.016120223 0.015140286 0.0056598336
0.014012273 0.017168667 0.0097950883
0.010870419 0.018835511 0.013207752
0.0069276746 0.020017192 0.015644722
-0.00041761249 0.020678982 0.01708233
-0.0066176662 0.019990629 0.015729968
-0.010586105 0.018793434 0.013342787
-0.013764102 0.017114198 0.0099698976
-0.014980223 0.016131572 0.007989604
-0.015915956 0.015077461 0.0058614518
-0.016553869 0.013971497 0.0036250837
0.012037793 -0.0012986176 0.016389735
0.0096778106 0.0040771589 0.019132119
0.01115955 0.0015180241 0.018279016
0.0067748465 0.0067394674 0.020502901
0.0031593163 0.0083147697 0.021327829
-0.0032080999 0.0081615709 0.02122562
-0.0067564677 0.0064263772 0.02029831
-0.0095510678 0.0036381036 0.018847317
-0.011289066 9.8900869e-05 0.017029878
-0.011800446 -0.0033150073 0.015541272
-0.011842242 -0.0011628456 -0.016435264
-0.010578591 0.0025861617 -0.0182907
-0.0081681684 0.0057167951 -0.019847317
-0.0048721787 0.0078898054 -0.02093642
-0.0010477919 0.0088697094 -0.021440001
0.0052155964 0.0076905861 -0.020783314
0.00843977 0.0053967759 -0.019603116
0.010749778 0.0021800138 -0.017981878
0.012003608 -0.0030966606 -0.015608681
0.012119105 -0.0042556524 0.015385279
0.011062341 -0.0079881586 -0.00012922846
0.0089155249 -0.011288065 -0.00013392977
0.0058135819 -0.01371213 -0.00012776814
0.0020926464 -0.01499768 -0.00011141039
-0.0018440448 -0.015005399 -8.6637214e-05
-0.0055698976 -0.013734452 -5.6127086e-05
-0.0086811595 -0.011322573 -2.3184344e-05
-0.010840674 -0.0080311112 8.6165965e-06
-0.011912139 -0.004131116 -0.015463626
0.0019608028 0.018281238 -0.011763455
-0.0018401491 0.018142696 0.01193325
-0.011881737 0.012760441 0.0011210497
-0.01089157 0.014655848 0.0049548093
-0.0087133609 0.016295303 0.0082572866
-0.0055831531 0.017501142 0.010670606
0.0040286537 0.017913636 0.011408439
0.0074926931 0.016990794 0.0095013157
0.01015256 0.015558971 0.0065702256
0.011720009 0.013773324 0.0029327963
0.012023278 0.012818296 -0.0010113101
0.011025734 0.014752216 -0.0048238616
0.008841157 0.016419739 -0.0081080291
0.0057062749 0.017640166 -0.010507913
-0.0039070649 0.018023776 -0.011241337
-0.0073674833 0.017066531 -0.0093446206
-0.010021752 0.015592097 -0.0064296257
-0.011582233 0.013760253 -0.002812231
-0.016071495 0.0017576031 0.0095458049
-0.016473455 -0.00049071573 0.024483288
-0.014094241 0.005931953 0.013038607
-0.014977093 0.0040728096 0.027408024
-0.011061734 0.0094264802 0.015945073
-0.0088897776 0.010909701 0.028450983
-0.0027921638 0.013409003 0.019196223
0.0041176118 0.01322695 0.018954953
0.0064778831 0.012442412 0.028445663
0.008425856 0.011570338 0.01750407
0.010509705 0.010186717 0.02800685
0.010367813 0.010319276 0.016425047
0.012119142 0.0088157319 0.015135666
0.013647208 0.007087715 0.013659956
0.015054164 0.0049940404 0.027055146
0.014923556 0.0051674172 0.012025394
0.0159244 0.0030906126 0.010262437
0.016754048 0.00070048496 0.02629362
0.016631106 0.00089598447 0.008403929
0.016255217 0.0019256566 -0.0095573124
0.016665516 -0.00015553087 -0.024518775
0.014261818 0.0061307847 -0.013003709
0.015151521 0.004434308 -0.027392818
0.01121581 0.0096455775 -0.015871363
0.0073430911 0.012209353 -0.017947579
0.0090378895 0.011258828 -0.028360127
-0.0039781285 0.013420643 -0.01883929
-0.006335564 0.012732175 -0.028338159
-0.0082799261 0.011731481 -0.017406939
-0.010358656 0.010456244 -0.027924443
-0.010217029 0.010461073 -0.016341874
-0.011962524 0.0089366082 -0.015069263
-0.013483892 0.0071864817 -0.013612812
-0.014883057 0.0052358788 -0.027030399
-0.014752795 0.0052432958 -0.011999654
-0.015745597 0.0031432528 -0.010259824
-0.016566372 0.0009276364 -0.026316507
-0.016443802 0.00092547014 -0.008425748
-0.016984917 -0.0035250038 -0.018011725
-0.017044621 -0.0031107087 -0.023175901
-0.017033773 -0.0034821834 -0.02576145
-0.016918087 -0.0027245469 -0.005574001
0.017048156 -0.0026579369 -0.0057877656
0.016923094 -0.0040372089 -0.01822832
0.016835773 -0.0045731664 -0.025981003
-0.016305657 -0.0074744895 0.0052129943
-0.01616111 -0.007910043 0.015543373
-0.016207945 -0.0075601302 0.02071245
-0.016063608 -0.008620508 -0.02062911
-0.014552216 -0.01175265 0.0051783007
-0.014308508 -0.012152735 0.015508251
-0.014454504 -0.011838291 0.020677758
-0.013977479 -0.012741622 -0.020665033
-0.011709556 -0.015399035 0.0051402319
-0.011379927 -0.01573823 0.015469978
-0.011611843 -0.015484676 0.02063969
-0.010856831 -0.016147032 -0.020703522
-0.0079884995 -0.018143233 0.00510161
-0.0075925682 -0.018400602 0.015431391
-0.007890787 -0.018228874 0.020601068
-0.0069331108 -0.018584192 -0.020741725
-0.0036650253 -0.019781709 0.0050653014
-0.0032273224 -0.019942403 0.015395351
-0.0035673128 -0.019867349 0.020564757
-0.0024973238 -0.019872338 -0.020776806
0.00094021671 -0.020192947 0.005033996
0.0013920572 -0.020249281 0.015364533
0.0010379292 -0.020278588 0.020533454
0.002121551 -0.019915931 -0.020806165
0.0054856781 -0.019346442 0.0050100181
0.0059229787 -0.019298472 0.015341224
0.0055833906 -0.019432083 0.020509474
0.0065809507 -0.018711757 -0.020827627
0.0096342396 -0.017304979 0.004995143
0.010029398 -0.017160501 0.015327148
0.0097319521 -0.01739062 0.020494603
0.010550141 -0.0163491 -0.020839592
0.013078224 -0.014219966 0.0049904771
0.013406765 -0.013993926 0.015323354
0.013175936 -0.014305606 0.020489935
0.01373475 -0.0130032 -0.020841183
0.015562208 -0.010320205 0.0049963668
0.015804594 -0.010033604 0.015330119
0.015659923 -0.010405846 0.020495825
0.015898587 -0.0089222081 -0.020832276
0.016901957 -0.0058949143 0.0050123725
0.016962597 -0.0044801533 -0.0078973155
0.01718956 -0.003658263 0.017940041
0.017247783 -0.0033009574 0.023108495
0.017238418 -0.0037010834 0.025689768
0.017119391 -0.0027203728 0.0055119433
-0.016846851 -0.0027869828 0.0057257079
-0.016716221 -0.0043034516 0.018150225
-0.016626665 -0.0049248934 0.025896501
-0.016851943 -0.0045464635 -0.0076845046
-0.016899059 0.015331578 -0.00059754588
-0.016882338 0.0053872615 -0.0010393169
-0.016469151 0.0053021852 -0.0038110297
-0.016836822 0.020884922 -0.0015286487
-0.014830376 0.0089162141 -0.0081155803
-0.015701015 0.023935119 -0.0061866771
-0.012084905 0.012014388 -0.011818608
-0.0084363557 0.014366927 -0.014645485
-0.010135205 0.025103398 -0.013446333
-0.0041553248 0.015799358 -0.016386544
-0.0010248814 0.025552016 -0.016802328
0.00073078647 0.01619605 -0.016904647
0.0052881222 0.01546733 -0.016099283
0.0056276657 0.025396228 -0.01589839
0.0094600543 0.013736893 -0.014100282
0.0097442865 0.025037542 -0.013800437
0.013142066 0.024500081 -0.010670858
0.015568996 0.023823706 -0.006741764
0.015992237 0.006948486 -0.0059509147
0.01666099 0.0050836504 -0.0037391428
0.01684509 0.023058584 -0.0023045521
0.017037669 0.0054537803 -0.0012527909
0.016639495 0.0053236037 0.003837971
0.016855447 0.016337393 0.0024697352
0.016947085 0.020931961 0.0017283093
0.014986901 0.008883398 0.0081822407
0.015799632 0.023925986 0.0064198077
0.012229595 0.011929771 0.011919297
0.0085720737 0.014236788 0.014771974
0.010229522 0.024992345 0.013691841
0.0042855926 0.015633347 0.016528703
0.0011176094 0.025368668 0.017052401
-0.00060200319 0.016005449 0.017051063
-0.0051565124 0.015268143 0.016237579
-0.0055343062 0.025197275 0.016146645
-0.0096495608 0.024845991 0.014044765
-0.013045308 0.024330137 0.010909356
-0.015469702 0.023687974 0.0069729611
-0.015827946 0.0068210401 0.0059952587
-0.01648956 0.0049782526 0.0037629586
-0.016742935 0.022967128 0.0025275219
-0.016842294 0.0030792505 0.0014604628
0.01199205 -0.001258526 0.0091337711
0.01196401 -0.00086129829 0.024129419
0.010496635 0.0028239097 0.010215588
0.011345958 0.001169214 0.026705755
0.0079765599 0.0058344267 0.012758041
0.009280635 0.0045174565 0.027256846
0.0046066418 0.0078621954 0.014474181
0.0062382612 0.0070132893 0.02764993
0.00074945949 0.0086069889 0.027861796
0.00075205974 0.0086874813 0.015178036
-0.0031623468 0.008112466 0.027775357
-0.0031694826 0.0082208477 0.014793331
-0.0067028124 0.0063759573 0.027474716
-0.0067330264 0.0065128617 0.013361756
-0.0084221689 0.0049519036 0.021535605
-0.0094882678 0.0035856459 0.026992459
-0.0095524024 0.0037486069 0.011038439
-0.010649096 0.0016993675 0.020153694
-0.011216864 4.3906271e-05 0.026380839
-0.01132209 0.00022764131 0.0080751572
-0.01175625 -0.003658412 0.01812252
-0.011751589 -0.0033578277 0.023291001
-0.011707393 -0.0037012324 0.025872249
-0.011846703 -0.0028472729 0.0056233611
-0.011161476 0.001102116 -0.0087378416
-0.011744312 -0.00046689436 -0.026427558
-0.0091889054 0.0045261122 -0.011556963
-0.010273214 0.0031880252 -0.026995687
-0.006213096 0.0071153194 -0.013687225
-0.0076954961 0.006165538 -0.027441403
-0.0025565224 0.0085891671 -0.014897773
-0.0042904895 0.0081429835 -0.027716419
0.0013841614 0.0088347029 -0.027782297
0.0013845675 0.0087879356 -0.015057446
0.0051831007 0.0076900851 -0.014148934
0.0071044248 0.0065327417 -0.022053855
0.0068684276 0.0067061614 -0.027434176
0.0084274374 0.0054145884 -0.012270691
0.0098475963 0.0036861692 -0.020875869
0.0096646175 0.0039214306 -0.026982794
0.010766009 0.0022080317 -0.0096262377
0.011522278 0.0001035668 -0.019398859
0.011406859 0.00037981756 -0.026410395
0.011511769 0.00036121532 -0.0081038009
0.011960682 -0.0034116246 -0.018193578
0.011954751 -0.0030538402 -0.023358406
0.011911826 -0.0033688042 -0.025943303
0.012048274 -0.0027386192 -0.0056861993
0.012118623 -0.0028002746 0.0054725371
0.012148712 -0.0041053072 0.017969348
0.012157606 -0.0046419837 0.025716599
0.011959214 -0.0042918101 -0.0078647342
0.01177286 -0.0059871785 0.0050441977
0.011749869 -0.0065533668 0.020541761
0.010248281 -0.0096171536 0.0050337519
0.0099531654 -0.010228015 0.015365934
0.0100758 -0.010118116 0.020532617
0.0099052973 -0.0097513013 -0.020799072
0.0076276846 -0.012555465 0.0050340369
0.0071722865 -0.013019338 0.015368043
0.0073349904 -0.012946192 0.02053427
0.0072045587 -0.012616124 -0.020797877
0.0041950457 -0.014483687 0.0050450228
0.0036357697 -0.014756508 0.015380738
0.0038244464 -0.014731124 0.020546539
0.0037199818 -0.01444881 -0.020786034
0.00032234192 -0.015192866 0.0050655194
-0.00027313642 -0.015251257 0.015402649
-7.5409189e-05 -0.015279479 0.020568095
-0.00017082319 -0.01505078 -0.020764833
-0.0035707513 -0.014606163 0.0050933044
-0.0041308496 -0.01444998 0.015431395
-0.003941969 -0.014531847 0.020596601
-0.0040462269 -0.014356792 -0.020736566
-0.0070623634 -0.012787156 0.0051253662
-0.0075193252 -0.012439512 0.015463866
-0.0073562292 -0.012569238 0.02062897
-0.0074862707 -0.012442049 -0.020704297
-0.0097741196 -0.0099329501 0.0051582325
-0.010071368 -0.0094377063 0.015496541
-0.0099481996 -0.0096043311 0.020661693
-0.01011817 -0.0095140412 -0.02067153
-0.011412161 -0.0063528493 0.0051883422
-0.01165672 -0.0058900714 -0.020641806
-0.011849328 -0.0043384992 -0.0077148955
-0.011991236 -0.0039094537 -0.025795599
-0.011965906 -0.0027427953 -0.013285102
-0.011908842 -0.0025364943 -0.005781794
-0.011888636 0.015262976 0.0008045882
-0.011867286 0.0052583069 0.0010795053
-0.011788789 0.023085706 0.0018291604
-0.0096817128 0.0077090971 0.0069882255
-0.010590855 0.023670157 0.0055837519
-0.0068969 0.010024698 0.0097936783
-0.0082396222 0.024141572 0.0087451041
-0.0031353096 0.024529755 0.011652343
-0.0033547692 0.011466444 0.011537284
-0.00034652278 0.011886658 0.01201883
0.00305859 0.024507493 0.011700884
0.0038830508 0.011410279 0.011420591
0.0066563003 0.024258846 0.010094482
0.0095383171 0.023833372 0.007406041
0.011031372 0.0061200839 0.0049179439
0.01139232 0.023277171 0.0039268844
0.011691554 0.0045795478 0.0030406099
0.012035312 0.0029675793 0.0010801982
0.012011299 0.022814751 0.00020015053
0.012037728 0.0053161606 -0.0010528546
0.011819419 0.01613945 -0.0021320563
0.0098426081 0.0078237988 -0.0069341119
0.010690285 0.023771713 -0.0053529385
0.0070488323 0.010159584 -0.0097138118
0.0083371885 0.024269048 -0.0085089263
0.0032313541 0.024669737 -0.011411803
0.0035011396 0.011606896 -0.011441419
0.00049128383 0.012020825 -0.011918338
-0.002962416 0.024624156 -0.01146072
-0.0037364112 0.011521561 -0.01132551
-0.0065591102 0.024343876 -0.0098572467
-0.0094394051 0.023877552 -0.007173745
-0.010864161 0.006132178 -0.0048819985
-0.011291179 0.023275718 -0.0037009921
-0.011518359 0.0045684129 -0.003021853
-0.011855867 0.0029335208 -0.0010794234
-0.0035809716 0.013168408 0.028688401
-0.016475644 -0.0071710721 -0.015451653
-0.015965896 -0.0087061487 -0.0051296484
-0.014771784 -0.011466961 -0.01548613
-0.013879766 -0.012827262 -0.0051655713
-0.011972083 -0.015143804 -0.015524099
-0.010759119 -0.016232673 -0.005204061
-0.0082841776 -0.017928906 -0.015562737
-0.0068353973 -0.018669832 -0.0052422639
-0.0039815884 -0.019615721 -0.015599182
-0.0023996104 -0.019957978 -0.005277345
0.00061658397 -0.02007914 -0.015630731
0.0022192635 -0.020001572 -0.005306704
0.0051693171 -0.019284781 -0.015655043
0.0066786632 -0.018797398 -0.0053281654
0.0093389507 -0.017291576 -0.015670316
0.010647854 -0.01643474 -0.005340131
0.012816243 -0.014247347 -0.015675416
0.013832463 -0.013088841 -0.0053417217
0.015343303 -0.010377862 -0.01566997
0.015996302 -0.0090078488 -0.0053328145
0.017060312 -0.004565794 0.0076021422
-0.01675423 -0.0046321042 0.0078149512
0.016976872 0.020663671 -0.0014570486
0.0050997622 0.025275255 0.016332824
0.012056926 -0.0043774508 0.0076347254
0.011506544 -0.0067309961 -0.0052919295
0.011360936 -0.0069942661 -0.015626168
0.0097328164 -0.010252263 -0.0053002033
0.009487547 -0.010472052 -0.015633574
0.0069118664 -0.013006851 -0.0052976403
0.0065864567 -0.013153151 -0.015630098
0.0033493843 -0.014696255 -0.0052845161
0.0029720385 -0.01474702 -0.015616117
-0.00056857429 -0.015137393 -0.0052622538
-0.00096402504 -0.015080947 -0.015593151
-0.0044174436 -0.014282469 -0.0052332636
-0.0047952048 -0.014118738 -0.01556368
-0.0077801347 -0.012224134 -0.0052006934
-0.0081063295 -0.011964668 -0.015530905
-0.010292251 -0.0091854297 -0.0051680636
-0.010538586 -0.0088521615 -0.015498372
-0.011681562 -0.0054956414 -0.0051389169
-0.011905557 0.020270787 -0.00032378174
-0.016184527 -0.007735081 0.018127913
-0.016256802 -0.007517308 0.012962725
-0.01596598 -0.0089560859 -0.025798423
-0.014381506 -0.011995513 0.018093005
-0.01450336 -0.011795469 0.012928031
-0.013786439 -0.013028558 -0.025834667
-0.011495885 -0.015611447 0.018054834
-0.011660699 -0.015441854 0.012889963
-0.010588966 -0.016361944 -0.025873242
-0.0077416776 -0.018314738 0.01801623
-0.0079396432 -0.018186051 0.012851341
-0.0066107018 -0.018709011 -0.025911292
-0.0033973185 -0.019904874 0.017980054
-0.0036161691 -0.019824527 0.012815032
-0.0021466948 -0.019895691 -0.025945989
0.0012149941 -0.020263933 0.017948993
0.00098907389 -0.020235766 0.012783727
0.0024719741 -0.019833982 -0.025974767
0.0057531856 -0.019365277 0.017925348
0.0055345353 -0.019389261 0.012759749
0.0069027655 -0.01852845 -0.025995487
0.009880675 -0.017275557 0.017910875
0.0096830968 -0.017347798 0.012744874
0.010817071 -0.01607592 -0.026006611
0.013291351 -0.014149766 0.017906643
0.013127081 -0.014262784 0.012740208
0.013924571 -0.012658291 -0.026007319
0.015732257 -0.010219723 0.017912973
0.015611066 -0.010363024 0.012746098
0.015994811 -0.0085290298 -0.025997555
0.016950814 -0.0059377328 0.012762103
0.011713466 -0.0066191815 0.017958201
0.011761365 -0.0062702708 0.01279298
0.011456732 -0.0062964447 -0.02595661
0.010014484 -0.010173064 0.017949276
0.010162042 -0.0098676346 0.012783187
0.0097826608 -0.0098611936 -0.025965752
0.0072536394 -0.012982763 0.017951157
0.0074813385 -0.012750827 0.012784155
0.0070418529 -0.01268927 -0.025964098
0.003730109 -0.014743816 0.017963639
0.004009746 -0.014607403 0.012795784
0.003531307 -0.014474202 -0.025951831
-0.00017427281 -0.015265364 0.017985372
0.0001234673 -0.015236173 0.012816809
-0.00036854856 -0.015022557 -0.025930276
-0.0040364088 -0.014490914 0.018013999
-0.0037563611 -0.014569003 0.012844954
-0.0042351065 -0.014274925 -0.025901766
-0.0074377768 -0.012504369 0.018046418
-0.0072092954 -0.012678199 0.01287717
-0.0076493667 -0.012312315 -0.025869397
-0.010009784 -0.009521015 0.018079117
-0.0098611591 -0.009768635 0.012909966
-0.010241338 -0.0093474127 -0.025836674
-0.011424582 -0.0061556399 0.012939785
-0.012021477 -0.0037306175 -0.028377848
0.011897197 0.025388628 0.0017745811
-0.01180414 0.025361247 -0.0015254561
-0.016595876 -0.0015644543 0.028691208
0.016791979 -0.0011821222 -0.028738322
-0.016982228 -0.0044322759 -0.028350448
0.016870776 -0.0037871897 -0.028560305
-0.016439509 -0.0072799623 -0.012869058
-0.016414069 -0.00714783 -0.00253479
-0.01601469 -0.0084758811 0.0026222058
-0.016307723 -0.007906545 -0.018040201
-0.015770471 -0.0088774301 0.025869263
-0.014710858 -0.011566982 -0.012903644
-0.014734999 -0.011452578 -0.0025691632
-0.013998616 -0.012633473 0.0025865231
-0.014408412 -0.012124922 -0.018075483
-0.01368434 -0.012998544 0.02583334
-0.011889676 -0.015228599 -0.01294166
-0.011956777 -0.015144642 -0.0026070755
-0.010935591 -0.016092904 0.0025480986
-0.011441419 -0.015674397 -0.018113801
-0.010563694 -0.016403954 0.025794851
-0.0081851948 -0.017993249 -0.012980292
-0.008285448 -0.017950203 -0.0026457254
-0.0070527773 -0.018597625 0.0025097802
-0.0076267878 -0.01829173 -0.01815231
-0.0066399723 -0.018841114 0.025756648
-0.0038721636 -0.019655894 -0.013016669
-0.0039933007 -0.019661184 -0.002682237
-0.0026381519 -0.019961867 0.0024744105
-0.0032474352 -0.019782793 -0.018188158
-0.0022041863 -0.02012926 0.025721567
0.00072954595 -0.020093221 -0.013048096
0.00060133636 -0.020150695 -0.0027139094
0.0019808747 -0.020084452 0.0024446137
0.0013718456 -0.020037025 -0.018218683
0.0024146903 -0.020172853 0.025692206
0.0052786432 -0.019272786 -0.013072243
0.0051577054 -0.019382413 -0.0027383883
0.0064617284 -0.018956281 0.0024225991
0.0058884602 -0.019035541 -0.018241623
0.0068740901 -0.018968675 0.025670748
0.009437738 -0.017255459 -0.013087315
0.0093378741 -0.017413337 -0.0027538594
0.010472089 -0.016661029 0.0024099983
0.0099674333 -0.016852628 -0.018255277
0.010843279 -0.016606022 0.025658779
0.012898378 -0.014190838 -0.013092199
0.01283182 -0.014389496 -0.0027591791
0.013714526 -0.013368931 0.0024077483
0.013306249 -0.013650194 -0.018258633
0.014027892 -0.013260122 0.02565719
0.015403898 -0.010306213 -0.013086529
0.015380414 -0.010535151 -0.0027539488
0.015948558 -0.0093241334 0.0024160128
0.015657278 -0.0096657313 -0.018251436
0.016191727 -0.0091791302 0.025666099
0.016768476 -0.0058896877 -0.01307073
0.016794642 -0.0061361641 -0.0027385596
0.017190592 -0.0046799816 0.028268086
-0.016664647 -0.0041676722 0.028484348
-0.016917607 0.025277501 -0.00044578873
0.017053341 0.00047520921 -0.00031359307
0.016812647 0.02551654 0.002712287
-0.016863007 0.00040548481 0.00047991984
-0.010779714 0.001191562 0.02887857
-0.011621332 -0.0045383275 0.028450508
0.010965237 0.0015533753 -0.028895276
0.011828931 -0.0041776225 -0.028530678
0.011844711 -0.0054638088 -0.0027036387
0.011555402 -0.0067738146 0.0024578013
0.011357298 -0.0078281388 0.025704041
0.01131117 -0.0071599111 -0.013043342
0.011113469 -0.0075098015 -0.018210879
0.010469621 -0.0091590174 -0.0027153846
0.0097816736 -0.010295082 0.0024495255
0.0093016252 -0.011187345 0.025698438
0.0093922075 -0.010608051 -0.013050297
0.0090805795 -0.010883823 -0.018216705
0.007969236 -0.012207553 -0.0027164686
0.0069607235 -0.01304967 0.0024520904
0.0062666293 -0.013697088 0.025703704
0.0064576399 -0.013246313 -0.013046375
0.0060623232 -0.01341499 -0.018211665
0.0046144966 -0.01427906 -0.0027067643
0.0033982415 -0.014739074 0.0024652146
0.0025812015 -0.01508541 0.025719266
0.0028254744 -0.014788795 -0.013031999
0.0023857728 -0.01482901 -0.018196298
0.00076895021 -0.015149072 -0.0026873294
-0.00051971711 -0.015180212 0.0024874769
-0.0013552792 -0.015201863 0.02574344
-0.0011106953 -0.015068356 -0.01300873
-0.0015506539 -0.014972642 -0.018172277
-0.0031506792 -0.014723305 -0.0026602652
-0.0043685874 -0.014325287 0.0025164653
-0.005116242 -0.014033828 0.025773605
-0.0049243206 -0.014054686 -0.012979088
-0.0053203935 -0.013830338 -0.018142199
-0.0067196433 -0.013047885 -0.0026285071
-0.0077312784 -0.012266953 0.0025490373
-0.0082941232 -0.011707887 0.02580649
-0.0082021337 -0.011857651 -0.012946283
-0.0085149324 -0.011525881 -0.018109327
-0.0095511833 -0.010304384 -0.0025954973
-0.010243393 -0.0092282481 0.0025816653
-0.010544553 -0.0084760748 0.025838535
-0.010588935 -0.0087153167 -0.012913873
-0.01078809 -0.0083089806 -0.018077223
-0.011338463 -0.0067900978 -0.0025648121
-0.011632705 -0.0055384599 0.0026108101
0.01205465 0.00030835159 7.5520948e-05
0.012013838 0.019067792 -0.00056380592
-0.016329076 -0.0072995313 0.0077975318
-0.016112255 -0.0079528615 0.023293102
-0.014625215 -0.011595421 0.0077630542
-0.014259651 -0.012195554 0.02325798
-0.011825513 -0.015272263 0.0077250879
-0.01133107 -0.015781049 0.023219706
-0.0081376079 -0.018057365 0.0076864492
-0.0075437119 -0.018443421 0.023181118
-0.0038350187 -0.01974418 0.0076500047
-0.0031784661 -0.019985221 0.02314508
0.00076315179 -0.020207599 0.0076184552
0.0014409125 -0.0202921 0.023114264
0.0053158831 -0.01941324 0.007594144
0.0059718341 -0.01934129 0.023090951
0.0094855186 -0.017420035 0.0075788703
0.010078253 -0.01720332 0.023076877
0.012962813 -0.014375806 0.0075737685
0.01345562 -0.014036745 0.023073083
0.015489874 -0.010506324 0.0075792186
0.015853452 -0.010076422 0.02307985
0.011665566 -0.0069680922 0.023123425
0.011210274 -0.0078039169 0.00762113
0.009866925 -0.010478493 0.023115367
0.0091318153 -0.011148289 0.0076157544
0.0070259403 -0.013214704 0.023118159
0.0060800817 -0.013636615 0.0076212436
0.0034504738 -0.014880225 0.023131497
0.0023857765 -0.014999244 0.0076370053
-0.00047201291 -0.015294559 0.023153936
-0.0015507545 -0.015088517 0.0076613277
-0.0043164575 -0.014412817 0.023183044
-0.0053029405 -0.013894755 0.0076915789
-0.0076662572 -0.012330547 0.023215668
-0.0084641669 -0.011547323 0.0077244788
-0.010158408 -0.0092733912 0.02324827
-0.010691868 -0.0083006062 0.0077564623
-0.011860061 0.0015072394 0.0010587331
-0.016464947 -0.0074120983 -0.023203323
-0.015124707 -0.01073803 -0.0077296067
-0.014686714 -0.011681385 -0.023238124
-0.012518321 -0.0145519 -0.0077671092
-0.011822574 -0.015312552 -0.023276241
-0.008979599 -0.017521106 -0.0078058261
-0.0080849426 -0.018036295 -0.023314858
-0.0047709923 -0.019425437 -0.0078428816
-0.0037510255 -0.019650601 -0.023351097
-0.0002046302 -0.020123664 -0.0078755263
0.00085775182 -0.020035747 -0.023382282
0.0043808185 -0.019563988 -0.0079013426
0.0053995792 -0.019163169 -0.023406094
0.00864527 -0.01778793 -0.0079184119
0.0095376056 -0.017097577 -0.023420768
0.012272455 -0.014927208 -0.0079254713
0.012964936 -0.013992175 -0.023425216
0.014993353 -0.011193994 -0.0079219993
0.015427375 -0.010077268 -0.023419106
0.011312079 -0.0069514439 -0.023375893
0.0098065957 -0.010099553 -0.0078832526
0.0094386898 -0.01042923 -0.023383299
0.0070257168 -0.012890875 -0.0078811441
0.0065375995 -0.013110328 -0.023379823
0.0034892 -0.014628045 -0.0078684483
0.0029231813 -0.014704198 -0.023365842
-0.00041970611 -0.015122794 -0.0078465398
-0.0010128822 -0.015038125 -0.023342876
-0.0042774193 -0.014321513 -0.0078177918
-0.0048440611 -0.014075916 -0.023313405
-0.0076658949 -0.012311049 -0.0077853221
-0.0081551857 -0.011921845 -0.02328063
-0.010217937 -0.0093092434 -0.0077526439
-0.010587443 -0.0088093393 -0.023248097
-0.015917165 -0.0091238655 -0.028383082
-0.013690919 -0.01317203 -0.028419485
-0.010455033 -0.016469397 -0.028458105
-0.0064494964 -0.018771417 -0.028496077
-0.0019713836 -0.01990737 -0.028530585
0.0026471894 -0.019793 -0.028559068
0.0070636757 -0.01843679 -0.028579419
0.010950534 -0.015939325 -0.028590122
0.014019484 -0.012485836 -0.02859039
0.016042924 -0.0083324388 -0.028580194
0.010718076 -0.0082095824 -0.028545948
0.0084573291 -0.011435378 -0.02854952
0.0052716937 -0.013752345 -0.028542237
0.0015063826 -0.014909424 -0.028524892
-0.0024305712 -0.014781233 -0.028499367
-0.0061125411 -0.013381641 -0.028468421
-0.0091405259 -0.010862336 -0.028435411
-0.011186397 -0.0074963085 -0.028403914
-0.015868109 -0.0085730962 0.028454985
-0.013863713 -0.012736768 0.028419344
-0.01081029 -0.01620521 0.028380929
-0.0069342963 -0.018721193 0.028342592
-0.0025231987 -0.020098113 0.028307175
0.0020958539 -0.020233858 0.028277304
0.0065802857 -0.019118357 0.028255198
0.010597507 -0.016834345 0.028242491
0.013849581 -0.013551209 0.028240131
0.016095312 -0.0095124468 0.02824829
0.011456147 -0.0076531954 0.028287809
0.0094574373 -0.011049449 0.028281644
0.0064642858 -0.013612747 0.028286349
0.0028010514 -0.015065301 0.028301418
-0.001135299 -0.015249714 0.028325215
-0.0049182028 -0.014146004 0.028355163
-0.0081377253 -0.011873771 0.028388014
-0.010444976 -0.0086792372 0.02842021
