# .PCD v0.7 - Point Cloud Data file format
VERSION 0.7
FIELDS x y z
SIZE 4 4 4
TYPE F F F
COUNT 1 1 1
WIDTH 1629
HEIGHT 1
VIEWPOINT 0 0 0 1 0 0 0
POINTS 1629
DATA ascii
25.390371 13.857071 39.565697
25.507256 12.067904 39.448814
25.215044 19.399899 39.741028
25.244265 20.382145 39.711803
25.565697 14.032396 39.390373
19.135242 1.596972 42.795792
19.455452 4.790916 42.714706
19.69561 4.790916 42.653885
19.855713 1.596972 42.613342
18.975138 11.977289 42.836334
19.135242 8.7833462 42.795792
18.975138 16.768206 42.836334
19.135242 15.96972 42.795792
19.455452 9.5818319 42.714706
19.455452 7.1863742 42.714706
19.216133 17.583652 42.778831
19.215294 16.768206 42.77552
19.938282 12.028172 42.603004
19.936604 10.397279 42.596382
19.69561 11.977289 42.653885
19.701477 17.685419 42.677063
19.580141 17.659977 42.702507
19.944149 17.736301 42.626183
20.817181 3.2514491 42.37339
20.896395 2.456274 42.349808
20.658752 9.7543468 42.420555
20.658752 12.210621 42.420555
20.817181 10.620271 42.37339
20.896395 7.3688221 42.349808
20.302288 12.104497 42.52668
20.460716 10.514147 42.479515
20.064648 16.946297 42.597431
20.104254 17.776844 42.58564
20.539932 12.175245 42.455933
21.047642 1.637516 42.283463
21.35014 4.9125481 42.15078
21.577011 4.9125481 42.051262
21.728258 1.637516 41.984917
20.896395 12.28137 42.349808
21.047642 9.0063381 42.283463
20.896395 17.193918 42.349808
21.047642 16.37516 42.283463
21.35014 9.8250961 42.15078
21.35014 7.3688221 42.15078
22.48587 3.3050759 41.656326
22.599991 2.5013399 41.608131
22.03487 9.9152279 41.861614
21.923492 12.416569 41.916061
22.151735 10.809097 41.819672
22.377235 7.5040212 41.717033
21.577011 12.28137 42.051262
21.805254 10.673899 41.954872
21.123268 17.193918 42.25029
21.124638 18.042721 42.253418
21.807999 12.371502 41.961128
22.637119 3.3714199 41.589981
22.71137 2.555789 41.553684
22.488613 10.114259 41.662582
22.488613 12.670048 41.662582
22.637119 11.038788 41.589981
22.71137 7.6673679 41.553684
22.15448 12.506701 41.825928
22.302984 10.875441 41.753334
21.931725 17.50938 41.93483
21.968851 18.379459 41.916679
22.377235 12.615599 41.717033
17.990387 17.450823 42.952202
17.742649 17.440575 42.962448
17.618782 17.435452 42.967575
18.606068 7.1403699 42.882339
18.359457 10.310452 42.9062
18.852116 2.3801229 42.851669
18.728527 3.1700821 42.860195
18.235308 9.5102472 42.907921
18.112284 11.89037 42.923256
17.164595 15.833334 42.986359
17 16.625 42.999996
17.493784 9.5 42.95908
17.493784 7.125 42.95908
17.164595 8.708334 42.986359
17 11.875 42.999996
18.234461 7.125 42.897709
17.90527 8.708334 42.924988
18.728245 2.375 42.856792
18.645947 1.583333 42.863609
17.987568 4.75 42.918167
17.740677 7.125 42.938622
16.793552 17.425205 42.991455
16.545815 17.435452 42.981209
16.917421 17.420082 42.996582
17 7.125 42.999996
16.917421 10.295082 42.996582
17 2.375 42.999996
16.917421 3.1700821 42.996582
16.752262 9.5102472 42.98975
16.752262 11.885246 42.98975
16.009613 15.867489 42.952202
15.886027 16.660864 42.94368
16.010742 9.5204945 42.938591
15.887718 7.1403699 42.923256
15.640545 8.7271194 42.9062
15.639981 11.900618 42.91301
16.628393 7.1403699 42.984627
16.38122 8.7271194 42.967575
16.876131 2.3801229 42.994873
16.752827 1.586749 42.982941
16.25848 4.7602472 42.948837
16.134609 7.1403699 42.94371
15.721996 17.479795 42.923233
15.47595 17.510464 42.892563
15.845019 17.464462 42.938568
15.393935 7.1403699 42.882339
15.47595 10.324091 42.892563
15.147889 2.3801229 42.851669
15.106881 3.1837211 42.846558
15.270912 9.5511627 42.867004
15.393934 11.931286 42.882339
14.822639 17.609095 42.79393
14.579966 17.659977 42.74305
14.943975 17.583652 42.819374
15.024866 7.1863742 42.836334
14.943975 10.397279 42.819374
15.024866 2.395458 42.836334
14.943975 3.2109051 42.819374
14.782194 9.6327143 42.785454
14.782194 12.028172 42.785454
14.055853 16.13933 42.626183
13.935354 16.946297 42.597431
14.059206 9.6835976 42.612938
13.940385 7.2626982 42.577564
13.699389 8.8766308 42.520058
13.697713 12.104497 42.52668
14.660856 7.2626982 42.76001
14.419861 8.8766308 42.702507
14.90353 2.4208989 42.810894
14.783871 1.613933 42.778831
14.301878 4.8417988 42.663818
14.180542 7.2626982 42.638378
13.776926 17.81222 42.550262
13.539285 17.882969 42.479515
13.895748 17.776844 42.58564
13.460071 7.2626982 42.455933
13.539285 10.514147 42.479515
13.222428 2.4208989 42.385181
13.182821 3.2514491 42.37339
13.341249 9.7543468 42.420555
13.460071 12.175245 42.455933
12.911118 18.087786 42.274696
12.68013 18.177917 42.184563
13.026611 18.042721 42.319763
13.103607 7.3688221 42.349808
13.026611 10.673899 42.319763
13.103607 2.456274 42.349808
13.026611 3.3050759 42.319763
12.87262 9.9152279 42.259674
12.87262 12.371502 42.259674
12.1824 16.675602 41.983025
12.068277 17.50938 41.93483
12.187888 10.005361 41.970512
12.076509 7.5040212 41.916061
11.848267 9.1715813 41.819672
11.845522 12.506701 41.825928
12.757126 7.5040212 42.214607
12.528882 9.1715813 42.118217
12.988113 2.5013399 42.304741
12.875363 1.66756 42.253418
12.418876 5.0026798 42.060646
12.303382 7.5040212 42.015579
11.919774 18.43391 41.862228
11.697018 18.542809 41.753334
12.031153 18.379459 41.916679
11.622766 7.5040212 41.717033
11.697018 10.875441 41.753334
11.400009 2.5013399 41.608131
11.362884 3.3714199 41.589981
11.511388 10.114259 41.662582
11.622766 12.615599 41.717033
11.11113 18.848225 41.447914
10.898128 18.975147 41.320995
11.21763 18.784763 41.511375
11.288631 7.6673679 41.553684
11.21763 11.117395 41.511375
11.288631 2.555789 41.553684
11.21763 3.450027 41.511375
11.075628 10.35008 41.426765
11.075628 12.905869 41.426765
10.440359 17.461668 41.040279
10.335726 18.334751 40.973961
10.447832 10.477001 41.028839
10.346935 7.8577509 40.956802
10.137669 9.6039181 40.824162
10.133932 13.096251 40.82988
10.969128 7.8577509 41.363304
10.759862 9.6039181 41.230663
11.182131 2.6192501 41.490227
11.079366 1.7461669 41.421043
10.660833 5.2385011 41.155762
10.554333 7.8577509 41.0923
10.201197 19.3279 40.877907
9.999403 19.471977 40.733829
10.302094 19.255861 40.949944
9.9321384 7.8577509 40.685802
9.999403 11.39811 40.733829
9.7303448 2.6192501 40.541725
9.6967134 3.54036 40.517708
9.8312426 10.621079 40.613762
9.9321384 13.24033 40.685802
9.471777 19.869663 40.336143
9.2825699 20.029911 40.175896
9.5663795 19.789537 40.416267
9.6294489 8.0738678 40.469685
9.5663795 11.71567 40.416267
9.6294489 2.6912889 40.469685
9.5663795 3.6418021 40.416267
9.4402428 10.925406 40.309437
9.4402428 13.616695 40.309437
8.8772488 18.476093 39.823662
8.7849579 19.399899 39.741028
8.8865013 11.085656 39.813614
8.7988386 8.3142424 39.725948
8.6142578 10.161852 39.560673
8.6096306 13.857071 39.565697
9.3456392 8.3142424 40.229309
9.1610584 10.161852 40.064034
9.5348454 2.771414 40.389557
9.4448681 1.847609 40.304413
9.0757084 5.5428281 39.973862
8.9811058 8.3142424 39.893738
8.6680737 20.469809 39.624142
8.4927464 20.645134 39.448814
8.7557373 20.382145 39.711803
8.4343052 8.3142424 39.390373
8.4927464 12.067904 39.448814
8.2589779 2.771414 39.215042
8.2297564 3.7536609 39.185822
8.3466415 11.260983 39.302704
8.4343052 14.032396 39.390373
8.0377731 21.124241 38.969707
7.8775229 21.313448 38.780502
8.117897 21.029636 39.064312
8.1713142 8.5772324 39.12738
8.117897 12.452405 39.064312
8.1713142 2.859077 39.12738
8.117897 3.8751719 39.064312
8.0110645 11.625517 38.938171
8.0110645 14.484594 38.938171
7.535706 19.691206 38.366356
7.4582758 20.675766 38.269653
7.5464869 11.814724 38.357964
7.4744482 8.861043 38.257072
7.3195891 10.830164 38.063667
7.314198 14.768405 38.067863
7.9309402 8.861043 38.843567
7.7760811 10.830164 38.650169
8.0911894 2.953681 39.032776
8.0164547 1.969121 38.933979
7.706737 5.907362 38.547173
7.6266122 8.861043 38.452568
7.3622241 21.828487 38.135124
7.2181458 22.030281 37.933334
7.4342632 21.727592 38.236023
7.1701198 8.861043 37.866066
7.2181458 12.866549 37.933334
7.026042 2.953681 37.664276
7.0020289 4.005506 37.630642
7.0980821 12.016517 37.765171
7.1701198 14.970198 37.866066
6.8482351 22.577736 37.385876
6.721313 22.790739 37.172874
6.911696 22.471237 37.492378
6.9540029 9.1637325 37.563377
6.911696 13.307503 37.492378
6.9540029 3.0545781 37.563377
6.911696 4.1437712 37.492378
6.8270822 12.431313 37.350372
6.8270822 15.485889 37.350372
6.452323 21.073858 36.708115
6.3918672 22.127552 36.599991
6.4643388 12.644316 36.701614
6.4098902 9.4832363 36.590237
6.2889762 11.590622 36.373981
6.282968 15.805393 36.377232
6.7636199 9.4832363 37.243874
6.6427059 11.590622 37.027622
6.890543 3.1610789 37.456879
6.8330889 2.1073861 37.347122
6.5912609 6.3221579 36.914619
6.5278001 9.4832363 36.808117
6.3192668 23.366875 36.451485
6.2103691 23.58963 36.228729
6.3737168 23.255497 36.562866
6.1740689 9.4832363 36.154476
6.2103691 13.772261 36.228729
6.0651698 3.1610789 35.931721
6.0470209 4.2890239 35.894596
6.1196198 12.867071 36.043098
6.1740689 16.028151 36.15448
5.9356108 24.190506 35.627853
5.845479 24.421495 35.396866
5.9806771 24.075012 35.743347
6.0107212 9.8173704 35.820343
5.9806771 14.257643 35.743347
6.0107212 3.2724569 35.820343
5.9806771 4.4402719 35.743347
5.920589 13.320816 35.589355
5.920589 16.593273 35.589355
5.6566548 22.586338 34.894173
5.61482 23.715656 34.777573
5.6695771 13.551804 34.88974
5.634202 10.163853 34.770916
5.5505309 12.422486 34.537712
5.5440698 16.939754 34.539932
5.875524 10.163853 35.473862
5.791853 12.422486 35.240654
5.9656549 3.3879509 35.704849
5.9270511 2.2586341 35.587135
5.7597079 6.7759018 35.120728
5.714643 10.163853 35.005234
5.5676541 25.043009 34.619144
5.4969039 25.280651 34.3815
5.6030278 24.924187 34.737965
5.4733219 10.163853 34.302284
5.4969039 14.760334 34.3815
5.4025731 3.3879509 34.064644
5.3907809 4.5964818 34.02504
5.4379468 13.789446 34.183464
5.4733219 17.177397 34.302288
5.3247948 25.918552 33.743599
5.273912 26.161226 33.500923
5.3502369 25.797218 33.864933
5.367198 10.520315 33.945824
5.3502369 15.276901 33.864933
5.367198 3.506772 33.945824
5.3502369 4.756587 33.864933
5.3163152 14.26976 33.703152
5.3163152 17.776531 33.703152
5.170403 24.187386 32.974007
5.1483302 25.396755 32.852112
5.1838789 14.512432 32.97176
5.1685438 10.884323 32.848736
5.1243992 13.303062 32.604942
5.117661 18.140541 32.606064
5.2908731 10.884324 33.581818
5.2467279 13.303062 33.33802
5.3417559 3.628108 33.824486
5.3230519 2.4187391 33.702026
5.2347622 7.256216 33.214432
5.2093201 10.884323 33.093094
5.1278839 26.811165 32.68808
5.0972152 27.057209 32.442036
5.143219 26.688141 32.811104
5.0869918 10.884324 32.360023
5.0972152 15.803817 32.442036
5.0563221 3.628108 32.113976
5.0512099 4.9194932 32.072968
5.0716572 14.758478 32.237
5.0869908 18.386585 32.36002
5.040987 27.508295 31.825794
5.040987 22.506786 31.495478
5.040987 22.506786 31.247738
5.040987 27.508295 31.082581
5.040987 11.253393 31.990953
5.040987 16.254902 31.825794
5.040987 3.7511311 31.990953
5.040987 5.0015082 31.825794
5.040987 15.004524 31.495478
5.040987 18.755657 31.495478
0.87914401 25.629749 23.428627
0.77672303 23.843531 25.95245
0.53381002 26.837719 24.447289
0.44718301 24.870213 27.165316
0.29804599 27.874889 25.484459
0.24052 25.913429 28.208534
2.9258261 21.479538 19.63228
2.740139 19.996269 21.762638
2.267391 22.549545 20.530613
2.095592 20.910046 22.841621
1.7605439 23.484644 21.465714
1.615136 21.858822 23.790396
6.016324 18.035414 16.487432
5.7611418 16.773512 18.257921
5.0936208 18.888098 17.198807
4.8493919 17.506609 19.122992
4.3532829 19.651777 17.962484
4.1307759 18.290575 19.906958
9.9214315 15.552816 14.22732
9.6156826 14.414274 15.698224
8.8028946 16.124939 14.698979
8.5043478 14.912324 16.285229
7.8839712 16.660557 15.234596
7.6008692 15.473337 16.846243
14.351524 14.215864 13.019567
14.017881 13.093529 14.27339
13.120108 14.464993 13.21653
12.789387 13.319593 14.538794
12.090754 14.732826 13.484364
11.768051 13.616048 14.835248
18.833702 14.108876 12.938908
18.641251 12.90923 14.089091
17.580061 14.026419 12.85645
17.579609 12.846542 14.026403
16.516617 14.016511 12.846542
16.323263 12.85645 14.023116
21.116632 14.51589 13.319593
20.787693 13.21653 14.43573
20.077446 14.289826 13.093529
19.885448 13.044221 14.263421
23.322876 15.229973 13.98151
23.007915 13.821818 15.105768
22.324152 14.864511 13.616048
21.999237 13.484364 14.768313
25.411337 16.23782 14.912324
25.116222 14.698979 16.071884
24.471678 15.73977 14.414274
24.162888 14.22732 15.600225
27.343109 17.520658 16.0947
27.073338 15.831675 17.316084
26.480021 16.899296 15.473337
26.19311 15.234596 16.719006
29.082211 19.054592 17.506609
28.842808 17.198807 18.815189
28.311769 18.321493 16.773512
28.052078 16.487432 18.103815
30.596241 20.811047 19.121754
30.391666 18.774906 20.541275
29.932798 19.979868 18.290575
29.70517 17.962484 19.728855
31.857002 22.757301 20.910046
31.691067 20.530613 22.462187
31.312918 21.843525 19.996269
31.121586 19.63228 21.563854
32.841003 24.857103 22.838173
32.716797 22.433224 24.542143
32.426414 23.877752 21.858822
32.274948 21.465714 23.574633
33.529915 27.071333 24.870213
33.449753 24.447289 26.742393
33.252541 26.044651 23.843531
33.143761 23.428627 25.723732
33.120857 25.629749 38.571373
33.223278 23.843531 36.047546
33.466194 26.837719 37.552711
33.552818 24.870213 34.834682
33.701958 27.874889 36.515541
33.759483 25.913429 33.791466
31.074177 21.479538 42.367718
31.259865 19.996269 40.237358
31.732611 22.549545 41.469391
31.904411 20.910046 39.158379
32.23946 23.484644 40.534286
32.384869 21.858822 38.209602
27.983679 18.035414 45.512566
28.238859 16.773512 43.742077
28.90638 18.888098 44.801193
29.15061 17.506609 42.877007
29.646719 19.651777 44.037514
29.869226 18.290575 42.09304
24.078569 15.552816 47.772682
24.384319 14.414274 46.301777
25.197107 16.124939 47.301018
25.495655 14.912324 45.714767
26.116032 16.660557 46.765404
26.399136 15.473337 45.153755
19.648476 14.215864 48.980431
19.982121 13.093529 47.726608
20.879894 14.464993 48.78347
21.210615 13.319593 47.461205
21.909248 14.732826 48.515633
22.231953 13.616048 47.164753
15.166298 14.108876 49.061092
15.358749 12.90923 47.910908
16.419941 14.026419 49.143551
16.420391 12.846542 47.973595
17.483383 14.016511 49.153458
17.676739 12.85645 47.976883
12.883369 14.51589 48.680405
13.212309 13.21653 47.56427
13.922555 14.289826 48.906467
14.114552 13.044221 47.736576
10.677127 15.229973 48.018494
10.992087 13.821818 46.894234
11.67585 14.864511 48.383953
12.000765 13.484364 47.231686
8.5886669 16.23782 47.087677
8.8837814 14.698979 45.928116
9.5283251 15.73977 47.585728
9.8371143 14.22732 46.399773
6.6568928 17.520658 45.9053
6.9266639 15.831675 44.683914
7.5199819 16.899296 46.526661
7.8068938 15.234596 45.280994
4.9177928 19.054592 44.493389
5.1571951 17.198807 43.184807
5.6882329 18.321493 45.226486
5.9479241 16.487432 43.896187
3.4037609 20.811047 42.878242
3.608335 18.774906 41.458725
4.067203 19.979868 43.709427
4.2948332 17.962484 42.271149
2.143002 22.757301 41.089954
2.3089371 20.530613 39.537811
2.6870849 21.843525 42.003731
2.8784161 19.63228 40.436142
1.159 24.857103 39.161831
1.283205 22.433224 37.457859
1.57359 23.877752 40.141182
1.725057 21.465714 38.425369
0.47008601 27.071333 37.129784
0.550246 24.447289 35.257607
0.74746001 26.044651 38.156467
0.85624099 23.428627 36.276268
0.013211 30.613293 33.970039
0.089093 29.358749 35.031681
0.123717 26.535301 32.978043
0.224084 28.30386 36.086571
0.28815299 25.484459 34.028885
33.971931 30.178247 34.405087
33.854858 33.121925 23.25
33.98679 30.613293 28.029961
33.910912 29.358749 26.968319
33.876289 26.535301 29.021957
33.775921 28.30386 25.913429
33.711853 25.484459 27.971115
0.028072 30.178247 27.594913
31.593933 33.813713 62
28.999506 22.223709 62
2.4060681 28.186289 62
5.000495 39.776291 62
24.872478 43.601875 62
9.1275244 18.398121 62
5.000495 22.223709 0
28.999506 39.776291 0
2.4060681 33.813713 0
9.1275244 43.601875 0
24.872478 18.398121 0
31.593933 28.186289 0
19.813713 0 16.406067
8.2237091 0 19.000494
14.18629 0 45.593933
25.776291 0 42.999504
29.601879 0 23.127523
4.3981228 0 38.872475
28.44931 27.461746 25.043009
28.538473 25.399471 27.73732
28.692167 28.337292 25.918552
28.751532 26.282562 28.620411
27.194075 24.685123 22.577736
27.34215 22.89724 24.933626
27.710777 25.625507 23.366875
27.84408 23.701008 25.882647
28.094433 26.449142 24.190506
28.199589 24.536989 26.718628
24.591293 21.71727 19.869663
24.812035 20.110037 21.904228
25.385345 22.438931 20.469809
25.594919 20.7328 22.638851
26.015644 23.093361 21.124241
26.202602 21.408051 23.314102
21.165882 19.755346 18.087786
21.435368 18.222984 19.8605
22.15123 20.180077 18.43391
22.414362 18.59726 20.301117
22.959873 20.594391 18.848225
23.208376 19.038607 20.742466
17.412897 19.017078 17.430328
17.578054 17.440575 19.023909
18.358896 19.093727 17.479795
18.647076 17.525799 19.122772
19.258255 19.223026 17.609095
19.541372 17.685419 19.282391
15.434943 19.112549 17.525799
15.721996 17.479795 19.076767
16.339367 19.027325 17.440575
16.505089 17.430328 19.0273
13.499678 19.532276 17.918343
13.776926 17.81222 19.449736
14.377739 19.299351 17.685419
14.662534 17.609095 19.246611
11.659892 20.264818 18.59726
11.919774 18.43391 20.13777
12.48764 19.890545 18.222984
12.75987 18.087786 19.791645
9.9657707 21.290184 19.544018
10.201197 19.3279 21.122093
10.720626 20.784775 19.038607
10.972864 18.848225 20.642418
8.4635258 22.580408 20.7328
8.6680737 20.469809 22.37586
9.124897 21.957645 20.110037
9.3502665 19.869663 21.775715
7.1941328 24.1003 22.131178
7.3622241 21.828487 23.864874
7.7439809 23.377172 21.408051
7.9363298 21.124241 23.160625
6.1922188 25.808395 23.701008
6.3192668 23.366875 25.548512
6.6155448 25.004627 22.89724
6.769629 22.577736 24.759377
5.4851131 27.658106 25.399471
5.5676541 25.043009 27.380856
5.77037 26.795624 24.536989
5.8819852 24.190506 26.528355
5.0136628 30.669683 28.086349
5.092103 29.598972 27.180233
5.1278839 26.811165 29.311918
5.2315092 28.701302 26.282562
5.2976112 25.918552 28.419308
5.9055681 26.449142 37.80949
5.8004141 24.536989 35.281372
5.550693 27.461746 36.956993
5.4615302 25.399471 34.26268
5.3078341 28.337292 36.081444
5.2484698 26.282562 33.379589
7.9843559 23.093361 40.875759
7.7973981 21.408051 38.685898
7.3199172 23.935875 40.171513
7.1461072 22.131178 37.832436
6.8059282 24.685123 39.42226
6.6578522 22.89724 37.066372
11.040129 20.594391 43.151779
10.791626 19.038607 41.257534
10.138128 21.17551 42.6721
9.8985062 19.544018 40.661789
9.4087076 21.71727 42.130337
9.1879663 20.110037 40.095772
14.741748 19.223026 44.390903
14.45863 17.685419 42.717606
13.69993 19.47978 44.187782
13.420464 17.918343 42.444138
12.834122 19.755346 43.912212
12.564636 18.222984 42.139496
18.56506 19.112549 44.474197
18.278006 17.479795 42.923233
17.495476 19.027325 44.559422
17.494911 17.430328 42.972694
16.587105 19.017078 44.569668
16.421946 17.440575 42.976089
20.500324 19.532276 44.081657
20.223076 17.81222 42.550262
19.622263 19.299351 44.314583
19.337469 17.609095 42.753387
22.340111 20.264818 43.40274
22.080229 18.43391 41.862228
21.512363 19.890545 43.777012
21.240131 18.087786 42.208351
24.034229 21.290184 42.455982
23.798805 19.3279 40.877907
23.279377 20.784775 42.961395
23.027138 18.848225 41.357582
25.536476 22.580408 41.2672
25.331928 20.469809 39.624142
24.875105 21.957645 41.889961
24.649736 19.869663 40.224285
26.80587 24.1003 39.86882
26.637779 21.828487 38.135124
26.25602 23.377172 40.591949
26.063671 21.124241 38.839375
27.807781 25.808395 38.298988
27.680733 23.366875 36.451485
27.384457 25.004627 39.10276
27.230373 22.577736 37.240623
28.514889 27.658106 36.600525
28.432348 25.043009 34.619144
28.229631 26.795624 37.463009
28.118015 24.190506 35.471642
28.98634 30.669683 33.913651
28.907898 29.598972 34.819767
28.872116 26.811165 32.68808
28.768492 28.701302 35.717438
28.702391 25.918552 33.580688
28.970968 30.298077 27.714743
1.253942 24.634342 22.433224
1.123513 22.838173 24.947092
3.5552821 20.622162 18.774906
3.3453109 19.121754 20.888123
6.853755 17.379658 15.831675
6.5798159 16.0947 17.579109
10.90473 15.147314 13.821818
10.587138 13.98151 15.26546
15.263423 14.105528 12.90923
15.070072 12.938908 14.118769
32.746063 24.634342 39.56678
32.876488 22.838173 37.05291
30.444721 20.622162 43.225094
30.654692 19.121754 41.111877
27.146246 17.379658 46.168324
27.420185 16.0947 44.420891
23.095272 15.147314 48.178185
23.412865 13.98151 46.734543
18.736578 14.105528 49.090771
18.929928 12.938908 47.881229
33.879589 29.118635 35.464699
33.920803 26.968319 32.545025
0.120414 29.118635 26.535301
0.079200998 26.968319 29.454975
0.145145 33.121925 38.75
26.680084 23.935875 21.828487
26.853895 22.131178 24.167564
23.861874 21.17551 19.3279
24.101494 19.544018 21.338209
20.300072 19.47978 17.81222
20.579538 17.918343 19.555861
6.2892241 25.625507 38.633125
6.15592 23.701008 36.117352
8.6146564 22.438931 41.530193
8.4050827 20.7328 39.361149
11.848774 20.180077 43.566086
11.58564 18.59726 41.698883
15.641106 19.093727 44.520203
15.352927 17.525799 42.877228
28.875534 29.394497 26.811165
28.918121 27.180233 29.680986
28.849976 32.810539 38.75
5.1500258 32.810539 23.25
5.0290332 30.298077 34.285259
5.1244678 29.394497 35.188835
5.0818801 27.180233 32.319016
0.145145 28.878071 18.525837
0.138547 28.974522 17.92823
0.138547 28.974522 16.135406
1.342659 24.40937 15.646723
1.310284 24.500465 15.141989
1.310284 24.500465 13.62779
0.79026198 25.931614 8.8729229
0.81532198 25.863567 9.3551598
0.83726901 25.794418 10.93685
0.75477499 26.021601 18.317677
0.73282802 26.090752 18.386829
0.32552999 27.880602 7.1536441
0.335365 27.833275 6.603364
0.364869 27.691292 8.2542038
0.395383 27.475464 19.108955
0.37820601 27.545952 19.179443
0.228193 28.280029 19.913521
0.215866 28.351524 19.985016
3.701406 20.429468 13.092012
3.645654 20.50845 12.66969
3.645654 20.50845 11.402721
2.7587979 21.746227 7.4299932
2.801286 21.687468 7.8330469
2.7003479 21.823305 15.357908
2.660558 21.883968 15.418573
1.7854691 23.497559 6.003582
1.807707 23.454639 5.5417681
1.874424 23.325884 6.9272099
1.962036 23.126291 16.06003
1.926479 23.189529 16.123268
1.583977 23.855911 16.789652
1.5528179 23.921432 16.855171
7.0464492 17.233532 11.051183
6.9714561 17.294544 10.694693
5.7835379 18.24715 6.250289
5.8403039 18.202032 6.5921659
5.70646 18.305599 12.887663
5.6517792 18.353279 12.935343
4.3737979 19.670937 5.030942
4.4067922 19.635611 4.6439471
4.6439848 19.361073 13.448551
4.5926852 19.412376 13.499851
4.083096 19.961639 14.049118
4.0354161 20.016323 14.1038
11.129702 15.058597 9.6755943
11.041029 15.097113 9.3634777
9.6401529 15.693896 5.4213042
9.7069864 15.665767 5.7245479
9.5501652 15.729383 11.090148
9.4846458 15.760542 11.121306
7.8985572 16.68454 4.3078618
7.939858 16.659424 3.9764881
8.2423248 16.459064 11.468206
8.1790867 16.494621 11.503765
7.5402031 16.886032 11.895176
7.4795389 16.925823 11.934965
15.648327 14.065958 9.0672607
15.552551 14.079123 8.7747688
14.042613 14.275826 5.004519
14.114557 14.266769 5.294538
13.946386 14.285717 10.098675
13.874891 14.298044 10.111002
12.098328 14.759858 3.8879671
12.144873 14.746817 3.588892
12.49018 14.635489 10.265867
12.419693 14.652666 10.283043
11.6989 14.857196 10.487573
11.629749 14.879143 10.509521
18.66441 14.098108 3.8345499
18.73613 14.1088 3.5395851
18.56908 14.081673 9.9867802
18.496912 14.074253 9.9793606
16.661633 14.03963 3.8024001
16.70997 14.03963 3.509907
17.072508 14.025595 9.9307013
17 14.023117 9.9282246
16.250755 14.025595 9.9307013
16.178249 14.02807 9.9331779
20.95038 14.48217 3.9624021
21.019978 14.502528 3.6576021
20.858181 14.452908 10.265867
20.787693 14.43573 10.24869
20.053616 14.285717 10.098675
19.982121 14.27339 10.086349
23.162764 15.173929 4.1728392
23.228939 15.203573 3.8518519
23.075407 15.132384 10.762761
23.007915 15.105768 10.736146
22.301102 14.857196 10.487573
22.231953 14.835248 10.465626
25.260345 16.160496 4.4619441
25.321869 16.198875 4.1187172
25.179459 16.107445 11.468206
25.116222 16.071884 11.43265
24.449837 15.729383 11.090148
24.384319 15.698225 11.058989
27.204054 17.423492 4.8243289
27.259777 17.469893 4.453227
27.131145 17.359921 12.369064
27.073338 17.316082 12.325228
26.459801 16.886032 11.895176
26.399136 16.846243 11.855386
28.95768 18.9394 5.2532439
29.006567 18.992954 4.8491492
28.894108 18.866489 13.448551
28.842808 18.815189 13.397251
28.293541 18.305599 12.887663
28.238861 18.257919 12.839983
30.488558 20.67997 5.7407012
30.529697 20.739683 5.299109
30.573534 20.797491 6.6238852
30.435503 20.599083 14.686562
30.391666 20.541275 14.628754
29.916904 19.961639 14.049118
29.869225 19.90696 13.994436
31.768169 22.612783 6.277617
31.800795 22.677542 5.794724
31.836351 22.74078 7.2434039
31.726624 22.525425 16.06003
31.691067 22.462189 15.996791
31.299656 21.823305 15.357908
31.259865 21.762642 15.297243
32.772678 24.701834 6.853992
32.796181 24.770432 6.3267622
32.822796 24.837923 7.908452
32.743416 24.609634 17.543373
32.716797 24.542143 17.475882
32.416027 23.855911 16.789652
32.384869 23.790394 16.724134
33.483368 26.908207 7.4590869
33.497314 26.979366 6.8853121
33.514488 27.049854 8.6066399
33.466934 26.812881 19.108955
33.449757 26.742393 19.038467
33.245224 26.021601 18.317677
33.223278 25.95245 18.248528
33.854858 28.878071 43.474159
33.861458 28.974522 44.07177
33.861458 28.974522 45.864594
32.657341 24.40937 46.353279
32.689716 24.500465 46.858013
32.689716 24.500465 48.372211
33.20974 25.931614 53.127075
33.184681 25.863567 52.64484
33.162735 25.794418 51.063148
33.245224 26.021601 43.682323
33.267174 26.090752 43.613174
33.674477 27.880602 54.846355
33.664639 27.833275 55.396637
33.635132 27.691292 53.745796
33.604622 27.475464 42.891045
33.621796 27.545952 42.820557
33.771812 28.280029 42.086479
33.784142 28.351524 42.014984
30.298595 20.429468 48.90799
30.354347 20.50845 49.330311
30.354347 20.50845 50.597282
31.241203 21.746227 54.570007
31.198715 21.687468 54.166954
31.299656 21.823305 46.64209
31.339443 21.883968 46.581429
32.214535 23.497559 55.996418
32.192295 23.454639 56.458233
32.12558 23.325884 55.072792
32.037964 23.126291 45.939972
32.073524 23.189529 45.876732
32.416027 23.855911 45.21035
32.447189 23.921432 45.144829
26.953552 17.233532 50.948814
27.028545 17.294544 51.305305
28.216463 18.24715 55.74971
28.159698 18.202032 55.407837
28.293541 18.305599 49.112335
28.348225 18.353279 49.064659
29.626202 19.670937 56.969055
29.593208 19.635611 57.356052
29.356016 19.361073 48.551445
29.407318 19.412376 48.500145
29.916904 19.961639 47.950882
29.964584 20.016323 47.896202
22.8703 15.058597 52.324406
22.958973 15.097113 52.63652
24.359848 15.693896 56.578697
24.293015 15.665767 56.275452
24.449837 15.729383 50.909851
24.515358 15.760542 50.878693
26.101444 16.68454 57.692139
26.060144 16.659424 58.023514
25.757679 16.459064 50.531792
25.820915 16.494621 50.496239
26.459801 16.886032 50.10482
26.520462 16.925823 50.065033
18.351675 14.065958 52.932739
18.447453 14.079123 53.225227
19.95739 14.275826 56.995483
19.885445 14.266769 56.705463
20.053616 14.285717 51.901321
20.125111 14.298044 51.888992
21.901676 14.759858 58.11203
21.855129 14.746817 58.411106
21.509823 14.635489 51.734131
21.580309 14.652666 51.716953
22.301102 14.857196 51.512424
22.370251 14.879143 51.490479
15.335593 14.098108 58.165451
15.263873 14.1088 58.460415
15.43092 14.081673 52.013222
15.50309 14.074253 52.020638
17.338369 14.03963 58.197601
17.290031 14.03963 58.490089
16.927492 14.025595 52.069298
17 14.023117 52.071777
17.749245 14.025595 52.069298
17.821753 14.02807 52.066822
13.049621 14.48217 58.037598
12.980024 14.502528 58.3424
13.141822 14.452908 51.734131
13.212309 14.43573 51.751308
13.946386 14.285717 51.901321
14.017881 14.27339 51.913651
10.837238 15.173929 57.82716
10.771063 15.203573 58.148148
10.924596 15.132384 51.237236
10.992087 15.105768 51.263855
11.6989 14.857196 51.512424
11.768051 14.835248 51.53437
8.7396545 16.160496 57.538055
8.678133 16.198875 57.881283
8.8205433 16.107445 50.531792
8.8837814 16.071884 50.567352
9.5501652 15.729383 50.909851
9.6156826 15.698225 50.94101
6.7959471 17.423492 57.175671
6.7402229 17.469893 57.546772
6.868856 17.359921 49.630936
6.9266639 17.316082 49.674774
7.5402031 16.886032 50.10482
7.6008682 16.846243 50.144615
5.0423212 18.9394 56.746758
4.993434 18.992954 57.150852
5.1058941 18.866489 48.551445
5.1571951 18.815189 48.602745
5.70646 18.305599 49.112335
5.7611432 18.257919 49.160019
3.5114441 20.67997 56.2593
3.470305 20.739683 56.70089
3.4264679 20.797491 55.376114
3.5644979 20.599083 47.313438
3.608335 20.541275 47.371246
4.083096 19.961639 47.950882
4.1307759 19.90696 48.005562
2.2318339 22.612783 55.722382
2.199209 22.677542 56.205276
2.163651 22.74078 54.756592
2.2733791 22.525425 45.939972
2.3089371 22.462189 46.003212
2.7003479 21.823305 46.64209
2.740139 21.762642 46.702759
1.227326 24.701834 55.146011
1.203823 24.770432 55.673241
1.1772079 24.837923 54.091549
1.2565891 24.609634 44.456627
1.283205 24.542143 44.524117
1.583977 23.855911 45.21035
1.615136 23.790394 45.275867
0.51663297 26.908207 54.540913
0.502689 26.979366 55.114685
0.48551199 27.049854 53.393364
0.53306901 26.812881 42.891045
0.550246 26.742393 42.961529
0.75477499 26.021601 43.682323
0.77672303 25.95245 43.751472
0.013195 31.192902 53.604168
0.019792 31.289352 54.25
0.019792 31.289352 52.3125
0.014036 30.589123 40.452541
0.016512999 30.516617 40.525047
0.112995 29.190804 53.918365
0.10887 29.263199 54.540031
0.101451 29.335369 52.675041
0.116297 29.094128 41.272377
0.123717 29.021957 41.344547
0.228193 28.280029 42.086479
0.24052 28.208534 42.157974
33.976074 30.492897 51.527939
33.970299 30.420616 50.954384
33.967823 30.348106 49.089394
33.985962 30.589123 40.452541
33.988441 30.661631 40.380035
33.897743 32.494995 53.604168
33.901039 32.44677 54.25
33.910934 32.302094 52.3125
0.59106803 35.397232 16.791666
0.57139802 35.302578 15.499999
0.57139802 35.302578 19.375
1.1484081 37.04406 59.416664
1.1969711 37.180702 59.416664
1.342659 37.59063 16.791666
1.310284 37.499535 15.499999
1.310284 37.499535 19.375
2.119051 39.146225 59.416664
2.1857669 39.274982 59.416664
2.385916 39.661255 16.791666
2.341439 39.575417 15.499999
2.341439 39.575417 19.375
3.3668971 41.096642 59.416664
3.4505241 41.215111 59.416664
3.701406 41.570534 16.791666
3.645654 41.49155 15.499999
3.645654 41.49155 19.375
4.868701 42.858971 59.416664
4.9676819 42.964954 59.416664
5.2646232 43.282898 16.791666
5.1986361 43.212242 15.499999
5.1986361 43.212242 19.375
6.5964899 44.400398 59.416664
6.7089801 44.491913 59.416664
7.0464492 44.766464 16.791666
6.9714561 44.705452 15.499999
6.9714561 44.705452 19.375
8.5180759 45.692192 59.416664
8.6419792 45.76754 59.416664
9.0136909 45.993584 16.791666
8.9310884 45.943352 15.499999
8.9310884 45.943352 19.375
10.597664 46.710304 59.416664
10.730673 46.768082 59.416664
11.129702 46.941406 16.791666
11.041029 46.902889 15.499999
11.041029 46.902889 19.375
12.796515 47.435764 59.416664
12.936152 47.474888 59.416664
13.355064 47.592262 16.791666
13.261972 47.566177 15.499999
13.261972 47.566177 19.375
15.073669 47.855057 59.416664
15.217335 47.874802 59.416664
15.648327 47.934044 16.791666
15.552551 47.920879 15.499999
15.552551 47.920879 19.375
17.386707 47.960369 59.416664
17.531723 47.960369 59.416664
17.966768 47.960369 16.791666
17.87009 47.960369 15.499999
17.87009 47.960369 19.375
19.692543 47.749741 59.416664
19.836206 47.729996 59.416664
20.2672 47.670753 16.791666
20.171425 47.683918 15.499999
20.171425 47.683918 19.375
21.948223 47.2271 59.416664
22.08786 47.187977 59.416664
22.506771 47.070602 16.791666
22.413679 47.096687 15.499999
22.413679 47.096687 19.375
24.111721 46.402176 59.416664
24.244732 46.344406 59.416664
24.643761 46.171082 16.791666
24.555088 46.209595 15.499999
24.555088 46.209595 19.375
26.142746 45.290344 59.416664
26.266651 45.214996 59.416664
26.638361 44.988953 16.791666
26.555759 45.039185 15.499999
26.555759 45.039185 19.375
28.00346 43.9123 59.416664
28.11595 43.820786 59.416664
28.453419 43.546234 16.791666
28.378426 43.607246 15.499999
28.378426 43.607246 19.375
29.659195 42.293736 59.416664
29.758175 42.187752 59.416664
30.055119 41.869804 16.791666
29.989132 41.94046 15.499999
29.989132 41.94046 19.375
31.079117 40.464783 59.416664
31.162745 40.346313 59.416664
31.413628 39.990891 16.791666
31.357876 40.069874 15.499999
31.357876 40.069874 19.375
32.236774 38.459518 59.416664
32.30349 38.330765 59.416664
32.503639 37.944496 16.791666
32.45916 38.030334 15.499999
32.45916 38.030334 19.375
33.110596 36.3153 59.416664
33.159157 36.178658 59.416664
33.304848 35.768734 16.791666
33.272472 35.859829 15.499999
33.272472 35.859829 19.375
33.684311 34.072067 59.416664
33.713814 33.930084 59.416664
33.802322 33.504143 16.791666
33.782654 33.598797 15.499999
33.782654 33.598797 19.375
33.937325 31.916288 32.9375
33.95052 31.723385 32.9375
33.986805 31.192902 8.395833
33.980209 31.289352 7.75
33.980209 31.289352 9.6875
33.985962 30.589123 21.547455
33.98349 30.516617 21.474949
33.887009 29.190804 8.0816355
33.891136 29.263199 7.45997
33.898552 29.335369 9.3249626
33.883705 29.094128 20.727619
33.876289 29.021957 20.655451
33.771812 28.280029 19.913521
33.759483 28.208534 19.842026
0.023929 30.492897 10.472065
0.0297 30.420616 11.045616
0.032177001 30.348106 12.910608
0.014036 30.589123 21.547455
0.011559 30.661631 21.619965
0.102261 32.494995 8.395833
0.098962002 32.44677 7.75
0.089065999 32.302094 9.6875
0.115456 32.687897 48.4375
0.118755 32.736122 46.5
0.108859 32.591446 44.5625
0.47305101 34.829308 59.416664
0.50255501 34.971291 59.416664
30.918709 34.957504 62
3.0812919 27.042494 62
4.6278481 23.490906 0
3.0812919 34.957504 0
29.372152 38.509094 0
19.218607 5.004519 14.148446
19.170494 5.294538 14.143499
14.781395 5.004519 47.851551
14.829508 5.294538 47.856499
0.039632 19.271589 31.966768
0.039632 18.649925 31.87009
0.039632 16.784931 31.87009
0.92939901 16.344135 36.506771
0.90331602 15.816904 36.413681
0.90331602 14.235214 36.413681
0.48217201 9.2625647 34.950378
0.50252998 9.7667446 35.019974
0.51970702 11.417585 35.090462
0.45290899 19.108955 34.858177
0.43573201 19.179443 34.787689
0.151527 7.4590869 32.97422
0.15810899 6.8853121 33.02211
0.177855 8.6066399 33.165771
0.193569 19.913521 33.383179
0.181242 19.985016 33.311684
0.081674002 20.727619 32.569084
0.074254997 20.799789 32.49691
3.011049 13.689363 40.638359
2.9608181 13.247771 40.555756
2.9608181 11.922994 40.555756
2.1604979 7.7699518 39.260345
2.1988771 8.1913223 39.321869
2.2344351 9.5767641 39.385109
2.107445 16.06003 39.179459
2.071887 16.123268 39.116219
1.308953 6.277617 37.446671
1.3282109 5.794724 37.491013
1.385985 7.2434039 37.62402
1.459772 16.789652 37.829128
1.4286129 16.855171 37.763611
1.132385 17.543373 37.075409
1.10577 17.610865 37.007915
6.130197 11.504169 44.055115
6.0595422 11.133068 43.989128
4.9394021 6.5153508 42.95768
4.9929562 6.8705602 43.006569
4.8664918 13.448551 42.894108
4.8151922 13.499851 42.842804
3.630111 5.2532439 41.44101
3.6606171 4.8491492 41.478504
3.8785219 14.049118 41.768589
3.830842 14.1038 41.713905
3.3599241 14.686562 41.131145
3.316087 14.74437 41.073338
10.055508 9.9506168 46.503639
9.9696693 9.6296291 46.45916
8.6127853 5.5918131 45.768166
8.6775436 5.9024138 45.800789
8.5254269 11.468206 45.726624
8.4621887 11.503765 45.691063
6.942853 4.4619441 44.66098
6.9823442 4.1187172 44.688854
7.270432 11.895176 44.909393
7.2097669 11.934965 44.869602
6.5990849 12.369064 44.435501
6.5412769 12.412903 44.391666
13.21802 3.8345499 47.536781
13.265347 3.5395851 47.546616
12.908209 5.0678282 47.483364
12.979368 5.358685 47.497307
12.812881 10.265867 47.46693
12.742394 10.283043 47.449753
11.001488 3.9624021 46.867783
11.047035 3.6576021 46.883968
11.38394 10.487573 47.0186
11.314789 10.509521 46.996651
10.609635 10.762761 46.743416
10.542144 10.789376 46.716797
16.27639 10.211634 47.953812
16.276276 10.504952 47.95546
16.324841 0.58333302 47.953819
16.469517 0.58333302 47.963715
17.749245 10.233928 47.974403
17.725075 10.524769 47.975231
18.59156 0.58498502 47.892792
18.736238 0.58498502 47.882889
19.218607 10.313896 47.851551
19.170494 10.603915 47.856499
20.053616 10.451167 47.714279
20.029783 10.742023 47.718391
20.876972 0.598149 47.51873
21.018955 0.598149 47.489227
21.492563 10.645102 47.392494
21.445572 10.93845 47.403946
22.301102 10.894794 47.142803
22.278053 11.192279 47.15012
23.090164 0.62423199 46.83696
23.226803 0.62423199 46.788399
23.682831 11.199081 46.628082
23.637836 11.502326 46.645824
24.449837 11.556543 46.270615
24.427998 11.867145 46.281002
25.189905 0.66274798 45.860176
25.318661 0.66274798 45.793465
25.748611 11.965515 45.57254
25.706451 12.285036 45.596245
26.459801 12.424088 45.113964
26.439579 12.754051 45.127228
27.137083 0.71297997 44.606575
27.255556 0.71297997 44.522949
27.651419 12.930129 44.245544
27.612881 13.272007 44.274769
28.293541 13.481271 43.694397
28.275314 13.83648 43.710289
28.895428 0.77399099 43.099518
29.001411 0.77399099 43.000534
29.355812 14.07495 42.671806
29.321611 14.444845 42.706005
29.916906 14.708396 42.038361
29.901012 15.094264 42.056587
30.432186 0.84464598 41.367058
30.523705 0.84464598 41.254566
30.83004 15.378656 40.880646
30.800816 15.78171 40.919182
31.299654 16.082603 40.176693
31.28639 16.503975 40.196915
31.718723 0.92362797 39.441483
31.794071 0.92362797 39.317577
32.046642 16.816959 38.905426
32.022938 17.257694 38.947586
32.022938 15.809011 38.947586
32.416023 17.578297 38.144085
32.40564 18.039351 38.165924
32.374481 16.525152 38.231441
32.731079 1.0094661 37.358658
32.788853 1.0094661 37.225647
32.982948 18.363068 36.782944
32.965206 18.845303 36.827938
32.965206 17.263611 36.827938
33.245228 19.16761 35.978394
33.237911 19.671791 36.001446
33.215965 18.02095 36.070595
33.450401 1.100561 35.157387
33.489525 1.100561 35.01775
33.621529 19.988176 34.552734
33.610077 20.514961 34.599724
33.610077 18.793633 34.599724
33.771812 20.820942 33.719971
33.7677 21.370886 33.743801
33.755375 19.578062 33.815296
33.863274 1.195215 32.87867
33.883022 1.195215 32.735004
33.950481 21.66202 32.256348
33.945534 22.235571 32.304459
33.945534 20.370579 32.304459
33.960373 1.243328 30.613293
33.960373 1.243328 30.468277
33.960373 21.758245 30.033232
33.960373 22.37991 30.12991
33.960373 20.514917 30.12991
33.070602 16.344135 25.493229
33.096687 15.816904 25.586321
33.096687 14.235214 25.586321
33.51783 9.2625647 27.04962
33.497475 9.7667446 26.980022
33.480293 11.417585 26.909538
33.547092 19.108955 27.141819
33.56427 19.179443 27.212307
33.848473 7.4590869 29.02578
33.841896 6.8853121 28.977892
33.822147 8.6066399 28.834227
33.806435 19.913521 28.616821
33.818764 19.985016 28.688316
33.918327 20.727619 29.43092
33.925751 20.799789 29.503088
30.988953 13.689363 21.361639
31.039185 13.247771 21.444241
31.039185 11.922994 21.444241
31.839504 7.7699518 22.739655
31.801126 8.1913223 22.678131
31.765568 9.5767641 22.614891
31.892559 16.06003 22.820541
31.928116 16.123268 22.883778
32.691048 6.277617 24.553326
32.671791 5.794724 24.508991
32.614014 7.2434039 24.37598
32.54023 16.789652 24.170872
32.571388 16.855171 24.236393
32.867615 17.543373 24.924595
32.894234 17.610865 24.992086
27.869806 11.504169 17.944881
27.94046 11.133068 18.010868
29.0606 6.5153508 19.04232
29.007046 6.8705602 18.993433
29.133511 13.448551 19.105892
29.184811 13.499851 19.157192
30.369892 5.2532439 20.558992
30.339386 4.8491492 20.521496
30.121481 14.049118 20.231411
30.169161 14.1038 20.286093
30.640079 14.686562 20.868855
30.683918 14.74437 20.926662
23.944496 9.9506168 15.496363
24.030334 9.6296291 15.54084
25.387218 5.5918131 16.231831
25.32246 5.9024138 16.199207
25.474575 11.468206 16.273376
25.537815 11.503765 16.308933
27.05715 4.4619441 17.339018
27.017658 4.1187172 17.311142
26.72957 11.895176 17.090607
26.790234 11.934965 17.130398
27.400917 12.369064 17.564497
27.458725 12.412903 17.608334
20.781981 3.8345499 14.463215
20.734653 3.5395851 14.453381
21.091793 5.0678282 14.516632
21.020634 5.358685 14.502688
21.187119 10.265867 14.533068
21.257607 10.283043 14.550245
22.998516 3.9624021 15.132219
22.952969 3.6576021 15.116032
22.616062 10.487573 14.9814
22.685211 10.509521 15.003347
23.390368 10.762761 15.256588
23.457859 10.789376 15.283203
17.72361 10.211634 14.046185
17.723724 10.504952 14.044537
17.675159 0.58333302 14.046181
17.530483 0.58333302 14.036284
16.250755 10.233928 14.025594
16.274925 10.524769 14.024768
15.408441 0.58498502 14.10721
15.263763 0.58498502 14.117105
14.781395 10.313896 14.148446
14.829508 10.603915 14.143499
13.946386 10.451167 14.285717
13.970219 10.742023 14.281609
13.12303 0.598149 14.481268
12.981047 0.598149 14.510772
12.507438 10.645102 14.607502
12.554429 10.93845 14.59605
11.6989 10.894794 14.857195
11.721951 11.192279 14.84988
10.90984 0.62423199 15.163039
10.773199 0.62423199 15.211601
10.317172 11.199081 15.371921
10.362166 11.502326 15.354177
9.5501642 11.556543 15.729383
9.5720034 11.867145 15.718996
8.8100986 0.66274798 16.139822
8.6813412 0.66274798 16.206537
8.2513924 11.965515 16.42746
8.2935514 12.285036 16.403755
7.540204 12.424088 16.886032
7.5604262 12.754051 16.872768
6.8629179 0.71297997 17.393421
6.7444448 0.71297997 17.477049
6.3485832 12.930129 17.754459
6.3871222 13.272007 17.725235
5.70646 13.481271 18.305601
5.7246881 13.83648 18.289707
5.1045742 0.77399099 18.900486
4.9985909 0.77399099 18.999466
4.6441908 14.07495 19.328194
4.678391 14.444845 19.293993
4.083096 14.708396 19.961639
4.098989 15.094264 19.943413
3.5678179 0.84464598 20.632942
3.476301 0.84464598 20.745434
3.1699619 15.378656 21.119356
3.199187 15.78171 21.080818
2.7003479 16.082603 21.823303
2.7136121 16.503975 21.803082
2.2812791 0.92362797 22.558517
2.2059319 0.92362797 22.682423
1.953362 16.816959 23.094576
1.977067 17.257694 23.052418
1.977067 15.809011 23.052418
1.583977 17.578297 23.855915
1.594363 18.039351 23.834076
1.625522 16.525152 23.768557
1.268922 1.0094661 24.641342
1.211148 1.0094661 24.774351
1.017053 18.363068 25.217058
1.034796 18.845303 25.172064
1.034796 17.263611 25.172064
0.75477499 19.16761 26.021603
0.76209098 19.671791 25.99855
0.78403902 18.02095 25.929401
0.54960501 1.100561 26.842613
0.51047999 1.100561 26.98225
0.378474 19.988176 27.447264
0.38992599 20.514961 27.400272
0.38992599 18.793633 27.400272
0.228193 20.820942 28.280029
0.232302 21.370886 28.256197
0.244629 19.578062 28.184702
0.13672701 1.195215 29.12133
0.116981 1.195215 29.264996
0.049524002 21.66202 29.743652
0.054469999 22.235571 29.695539
0.054469999 20.370579 29.695539
0.039632 21.758245 31.338367
0.039632 22.37991 31.29003
0.039632 20.514917 31.145016
20.957506 0 17.081291
13.042496 0 44.918709
28.849976 29.189459 18.745224
28.856794 29.271755 18.140539
28.856794 29.271755 16.326487
28.664024 28.344418 7.34056
28.653889 28.304392 6.7759008
28.62348 28.184315 8.4698772
28.59194 28.000633 19.535049
28.609627 28.060043 19.59446
28.764252 28.68108 20.215492
28.776974 28.741747 20.276161
26.56002 23.767714 15.260685
26.605186 23.836845 14.768405
26.605186 23.836845 13.291564
27.325853 24.919613 8.5873718
27.291264 24.868229 9.0628357
27.259533 24.81498 10.590125
27.37388 24.986877 17.611027
27.405609 25.040127 17.664276
28.067848 26.460802 6.8490038
28.051262 26.422989 6.3221579
28.001503 26.309555 7.9026971
27.940159 26.133568 18.228352
27.967384 26.189259 18.28404
28.222122 26.776375 18.871155
28.244652 26.834122 18.928902
23.693714 21.055445 13.532793
23.758881 21.106167 13.096251
23.758881 21.106167 11.786626
24.792072 21.896267 7.5772929
24.742674 21.858898 8.0018291
24.695372 21.818836 9.3474731
24.859337 21.94429 15.477659
24.906639 21.984354 15.517721
25.994286 23.113026 6.0047302
25.966322 23.082647 5.5428281
25.882427 22.991514 6.928535
25.767265 22.844982 15.953058
25.811096 22.888813 15.996891
26.242664 23.361404 16.469482
26.282728 23.408707 16.516785
20.102036 19.420822 12.50798
20.180141 19.447636 12.104497
21.4139 19.859451 6.9358602
21.355045 19.840149 7.333447
21.493114 19.883034 14.046574
21.550861 19.905567 14.069107
22.946056 20.619923 5.41957
22.909742 20.600273 5.0026808
22.644302 20.440117 14.328533
22.699993 20.467342 14.355759
23.261627 20.774197 14.662613
23.314877 20.805927 14.694344
17.557411 19.029886 5.145833
17.495476 19.030741 4.75
17.639992 19.02647 13.472849
17.701923 19.029034 13.475412
19.253475 19.251663 5.1569338
19.212748 19.244865 4.7602472
18.909689 19.179577 13.530813
18.971201 19.187244 13.538481
19.602039 19.295111 13.646345
19.662708 19.307831 13.659067
15.579594 19.101395 5.1901588
15.518644 19.112431 4.790916
15.660486 19.084435 13.530813
15.721996 19.076767 13.523146
16.360012 19.02647 13.472849
16.421946 19.023909 13.470287
13.64052 19.497467 5.3219271
13.582218 19.518387 4.9125481
13.717516 19.467422 13.818657
13.776926 19.449734 13.80097
14.397962 19.295111 13.646345
14.45863 19.282391 13.633625
11.793084 20.207302 5.5375438
11.739021 20.23753 5.1115789
11.683332 20.264755 6.3894739
11.864084 20.164993 14.328533
11.919773 20.137772 14.30131
12.506889 19.883034 14.046574
12.564636 19.8605 14.02404
10.08768 21.211529 5.8311272
10.03933 21.250244 5.3825788
9.9888802 21.286263 6.7282228
10.150748 21.158113 15.046528
10.201197 21.122093 15.010509
10.738377 20.774197 14.662613
10.791626 20.742466 14.630882
8.5708246 22.482761 6.1946678
8.5295057 22.528906 5.7181549
8.4856739 22.572739 7.1476941
8.6242409 22.419693 15.953058
8.6680737 22.375858 15.909227
9.1406641 21.94429 15.477659
9.1879654 21.904228 15.437597
7.2838969 23.986324 6.6182508
7.2507372 24.038639 6.1091552
7.2147179 24.089088 7.6364441
7.3262038 23.915321 17.023399
7.3622241 23.864874 16.97295
7.7573361 23.361404 16.469482
7.7973981 23.314102 16.42218
6.2619991 25.681198 7.090323
6.2379022 25.738258 6.5449138
6.2106771 25.793949 8.1811428
6.2920432 25.604202 18.228352
6.3192668 25.548512 18.172661
6.626122 24.986877 17.611027
6.6578522 24.933626 17.557774
5.5330052 27.521156 7.5980058
5.5186291 27.581406 7.0135441
5.5009422 27.640816 8.7669296
5.5499659 27.440268 19.535049
5.5676541 27.380856 19.475636
5.7778811 26.776375 18.871155
5.8004141 26.718628 18.813408
5.013639 31.164595 8.395833
5.0204592 31.246891 7.75
5.0204592 31.246891 9.6875
5.0145168 30.64904 21.607372
5.0170789 30.587105 21.545437
5.1168008 29.456009 8.1274509
5.1125369 29.517803 7.5022631
5.1048698 29.579315 9.3778286
5.1202159 29.373428 20.907845
5.1278839 29.31192 20.846333
5.2357488 28.68108 20.215492
5.2484698 28.620411 20.154823
5.1500258 29.189459 43.254768
5.1432071 29.271755 43.859455
5.1432071 29.271755 45.673508
6.379972 25.439877 45.667759
6.3468008 25.515501 46.194607
6.3468008 25.515501 47.775146
5.8141799 26.702122 52.802292
5.8398409 26.645746 52.294006
5.8623738 26.587999 50.657776
5.7778811 26.776375 43.128845
5.7553482 26.834122 43.071098
5.335978 28.344418 54.659439
5.3461132 28.304392 55.224098
5.3765211 28.184315 53.530125
5.408062 28.000633 42.464951
5.3903751 28.060043 42.40554
5.2357488 28.68108 41.784508
5.2230291 28.741747 41.723839
8.7607632 22.292824 47.681026
8.704834 22.35358 48.142929
8.704834 22.35358 49.528637
7.8157778 23.302963 53.957722
7.8583531 23.257975 53.510429
7.898416 23.210672 52.080891
7.7573361 23.361404 45.530518
7.7172732 23.408707 45.483215
6.8302321 24.701002 55.600357
6.8528161 24.666435 56.092636
6.9205661 24.562737 54.615799
7.0100379 24.39925 44.976601
6.9740191 24.449699 44.926155
6.626122 24.986877 44.388969
6.5943909 25.040127 44.335724
12.034403 20.089329 49.076408
11.961777 20.128632 49.493298
10.812628 20.737896 54.794895
10.867504 20.709169 54.387081
10.738377 20.774197 47.337387
10.685125 20.805927 47.305656
9.4265385 21.740181 56.324959
9.4591217 21.714821 56.761497
9.5568724 21.638739 55.451874
9.694581 21.513161 46.953472
9.6441326 21.549181 46.91745
9.1406641 21.94429 46.522343
9.0933628 21.984354 46.482281
15.846144 19.068172 49.702698
15.76469 19.081764 50.09938
14.479977 19.284887 55.223091
14.541206 19.275536 54.82896
14.397962 19.295111 48.353653
14.337294 19.307831 48.340935
12.843548 19.782804 56.754719
12.882601 19.769398 57.158203
